ply
format ascii 1.0
comment pointcloud saved from PyCharm
element vertex 1263
property float32 x
property float32 y
property float32 z
property uchar blue
property uchar green
property uchar red
end_header
1.79278 -0.388291 -1.67142 209 188 158
1.80612 -0.390215 -1.66206 210 190 158
1.81328 -0.390799 -1.64694 206 186 154
1.82045 -0.391384 -1.63182 207 187 155
1.81504 -0.389273 -1.60558 203 183 149
1.80954 -0.387154 -1.57955 206 186 154
1.81027 -0.386379 -1.55919 203 183 149
1.81095 -0.3856 -1.53893 201 183 151
1.82435 -0.387528 -1.52947 200 182 150
1.8442 -0.390818 -1.5252 202 184 152
1.86415 -0.394116 -1.52073 198 183 150
1.87774 -0.39606 -1.51086 167 149 123
1.90515 -0.400906 -1.5118 127 113 96
1.90589 -0.400131 -1.49143 59 56 53
1.90576 -0.399181 -1.47053 61 61 61
1.90639 -0.398398 -1.45037 69 73 72
1.90697 -0.397611 -1.43032 83 88 84
1.91411 -0.398193 -1.41525 87 92 88
1.91462 -0.3974 -1.39535 93 98 94
1.92173 -0.397981 -1.38033 105 105 99
1.92217 -0.397181 -1.36059 115 114 106
1.92926 -0.39776 -1.34563 119 114 104
1.9498 -0.401106 -1.33991 134 125 112
1.97044 -0.40446 -1.33398 134 128 116
1.98525 -0.406608 -1.32389 106 106 100
1.99926 -0.408586 -1.31312 86 95 94
2.0065 -0.409177 -1.29784 60 75 81
2.01374 -0.409768 -1.28256 55 73 78
2.02098 -0.410359 -1.26728 39 58 72
2.02822 -0.410949 -1.25199 26 44 61
2.02853 -0.41014 -1.2325 22 39 58
2.04269 -0.412131 -1.22143 24 41 62
2.04993 -0.412722 -1.20614 29 47 72
2.05717 -0.413313 -1.19086 33 52 80
2.06441 -0.413903 -1.17558 31 52 81
2.0646 -0.413084 -1.15635 29 51 85
2.05679 -0.410673 -1.13284 35 56 92
2.05686 -0.409844 -1.11388 39 60 96
2.05687 -0.40901 -1.09502 45 66 102
2.06399 -0.409591 -1.08 52 72 106
2.06393 -0.408751 -1.0613 56 75 111
2.07102 -0.40933 -1.04633 56 76 110
2.07811 -0.409908 -1.03137 61 80 116
2.07795 -0.409061 -1.01287 61 80 116
2.08501 -0.409637 -0.997961 63 82 118
2.09208 -0.410214 -0.983048 64 83 119
2.09914 -0.41079 -0.968135 64 83 119
2.1062 -0.411367 -0.953223 62 81 117
2.09854 -0.409072 -0.931768 60 81 117
2.09908 -0.408386 -0.914143 58 78 117
2.09124 -0.406076 -0.893046 59 79 118
2.09819 -0.406643 -0.878387 61 81 120
2.10513 -0.40721 -0.863728 61 81 120
2.11207 -0.407777 -0.849069 63 81 120
2.11902 -0.408343 -0.834409 63 81 120
2.1335 -0.41036 -0.822657 62 80 119
2.1329 -0.409477 -0.805091 61 79 118
2.13321 -0.408771 -0.787979 61 79 118
2.13252 -0.40788 -0.770614 60 80 119
2.12509 -0.405709 -0.750992 61 81 120
2.12524 -0.404991 -0.734212 62 82 121
2.12438 -0.404086 -0.717198 61 79 118
2.12444 -0.40336 -0.700606 59 77 116
2.12446 -0.402631 -0.684105 59 76 117
2.11667 -0.40043 -0.665256 59 76 117
2.12338 -0.400978 -0.651077 59 78 119
2.1301 -0.401526 -0.636899 57 79 118
2.13681 -0.402074 -0.62272 59 81 120
2.14353 -0.402623 -0.608542 59 81 120
2.14335 -0.401877 -0.592457 57 79 118
2.14312 -0.401128 -0.576462 60 82 121
2.14285 -0.400376 -0.560559 59 81 120
2.13558 -0.398322 -0.542977 59 81 120
2.1352 -0.39756 -0.527301 58 83 121
2.13478 -0.396796 -0.511716 60 84 124
2.1283 -0.39491 -0.494822 62 83 124
2.12072 -0.392831 -0.47787 58 82 122
2.11407 -0.390932 -0.46132 58 81 124
2.12052 -0.391458 -0.44772 58 83 126
2.13407 -0.393294 -0.435571 60 86 126
2.14054 -0.393822 -0.421926 67 91 131
2.13371 -0.391908 -0.405753 72 97 135
2.11347 -0.387543 -0.387306 80 103 139
2.10027 -0.384484 -0.370466 122 130 144
2.09933 -0.383677 -0.355973 152 153 150
2.09318 -0.381923 -0.340729 165 163 149
2.09318 -0.381297 -0.326612 153 151 137
2.09314 -0.380667 -0.312573 124 127 119
2.09933 -0.381173 -0.299506 94 105 103
2.08668 -0.378261 -0.283875 76 90 98
2.08651 -0.377622 -0.270109 76 97 104
2.07999 -0.375837 -0.255644 91 109 114
2.07973 -0.37519 -0.242073 98 116 121
2.07943 -0.37454 -0.22858 115 125 127
2.08547 -0.375033 -0.215825 120 131 130
2.08619 -0.37457 -0.202552 127 133 132
2.09221 -0.375062 -0.189829 130 136 135
2.09181 -0.374402 -0.176564 131 137 136
2.09137 -0.37374 -0.163376 130 137 133
2.09197 -0.373268 -0.150344 130 135 131
2.09146 -0.3726 -0.137306 128 133 129
2.09091 -0.371929 -0.124346 129 134 130
2.09141 -0.371448 -0.111521 132 137 133
2.0788 -0.368645 -0.0981446 128 135 131
2.02673 -0.358866 -0.0833698 133 138 134
1.93049 -0.341307 -0.067745 129 136 127
1.82488 -0.322148 -0.0530731 120 126 119
1.76825 -0.311684 -0.04086 116 118 112
1.72676 -0.303915 -0.0296403 104 104 98
1.70385 -0.299437 -0.0191788 79 80 72
1.68969 -0.296506 -0.00908982 83 83 77
1.6821 -0.29474 0.000781299 96 95 92
1.68339 -0.294532 0.0105655 100 98 98
1.69587 -0.296281 0.020446 101 101 101
1.71177 -0.298622 0.0304774 94 98 98
1.74012 -0.303127 0.0409304 83 86 94
1.76974 -0.30784 0.0516893 76 75 79
1.78702 -0.310398 0.0622994 64 58 44
1.80892 -0.313751 0.0732368 59 46 26
1.82294 -0.315729 0.0840015 63 49 27
1.83243 -0.316922 0.0946341 78 59 29
1.83278 -0.316533 0.104795 85 66 36
1.83311 -0.316143 0.114903 98 86 62
1.83342 -0.31575 0.12496 107 96 76
1.84294 -0.316944 0.135645 110 99 86
1.87101 -0.321322 0.147845 116 105 94
1.91777 -0.328895 0.161873 115 104 91
1.98105 -0.339277 0.177832 117 107 91
2.04465 -0.349684 0.19444 120 113 95
2.0828 -0.35572 0.209114 120 115 98
2.08241 -0.355167 0.220061 111 107 93
2.06082 -0.351005 0.228593 108 102 88
2.03319 -0.345828 0.236142 103 99 85
2.00776 -0.341039 0.243615 103 97 85
1.95845 -0.332215 0.247749 101 96 86
1.90173 -0.32216 0.250348 106 102 95
1.85779 -0.314296 0.254063 116 112 105
1.84467 -0.31166 0.261651 115 111 104
1.84583 -0.311441 0.271156 115 111 104
1.84577 -0.311019 0.280439 122 117 107
1.84689 -0.310797 0.28986 122 117 107
1.85161 -0.311183 0.299827 122 117 107
1.85633 -0.311568 0.309795 122 117 107
1.86105 -0.311953 0.319763 122 117 107
1.86577 -0.312339 0.329731 122 117 107
1.87049 -0.312724 0.339699 122 117 107
1.87032 -0.312293 0.348755 122 117 107
1.87136 -0.312064 0.357993 120 117 107
1.87114 -0.311629 0.366951 120 117 107
1.87214 -0.311397 0.376106 120 117 107
1.87187 -0.310959 0.384966 120 117 107
1.87283 -0.310723 0.394036 120 117 107
1.87252 -0.310281 0.4028 120 117 107
1.87343 -0.310042 0.411785 120 117 107
1.87308 -0.309596 0.420451 120 117 107
1.87395 -0.309354 0.429351 122 120 108
1.88232 -0.310351 0.43997 122 120 108
1.88695 -0.310728 0.44973 122 120 108
1.89157 -0.311105 0.45949 122 120 108
1.89619 -0.311483 0.46925 122 120 108
1.89702 -0.311237 0.478053 122 120 108
1.89275 -0.310158 0.485516 122 120 108
1.89353 -0.309909 0.494215 122 120 108
1.88919 -0.308824 0.501521 122 120 108
1.87714 -0.306484 0.506667 124 120 108
1.87013 -0.304973 0.51305 124 120 108
1.86564 -0.303876 0.520032 124 120 108
1.86625 -0.303613 0.52838 124 120 108
1.87071 -0.303977 0.537802 124 120 108
1.87517 -0.304341 0.547224 124 120 108
1.87964 -0.304705 0.556646 124 120 108
1.8802 -0.304438 0.564896 124 120 108
1.88465 -0.304802 0.574299 123 119 107
1.88519 -0.304533 0.582491 123 119 107
1.88571 -0.304262 0.590645 123 119 107
1.89014 -0.304624 0.600008 123 119 107
1.89458 -0.304986 0.609371 123 119 107
1.90297 -0.305984 0.620023 123 119 107
1.91138 -0.306983 0.630714 123 119 107
1.92377 -0.308621 0.64277 123 119 107
1.93223 -0.309624 0.653558 123 119 107
1.94203 -0.310841 0.664841 123 119 107
1.95052 -0.311847 0.675713 123 119 107
1.95903 -0.312855 0.686625 123 119 107
1.66807 -0.444153 -2.97874 176 181 177
1.66929 -0.442914 -2.94793 176 182 175
1.66433 -0.440055 -2.90662 183 186 178
1.66598 -0.438964 -2.87724 185 186 178
1.67434 -0.439646 -2.85959 180 183 170
1.6827 -0.440329 -2.84194 183 184 171
1.69107 -0.441011 -2.82428 190 191 178
1.69943 -0.441694 -2.80663 199 198 181
1.72162 -0.445958 -2.81155 209 207 195
1.737 -0.44844 -2.80498 217 211 197
1.73848 -0.447334 -2.77596 223 213 197
1.73288 -0.444424 -2.73601 222 212 196
1.74124 -0.445106 -2.71835 213 202 189
1.7496 -0.445789 -2.7007 195 191 177
1.75085 -0.444663 -2.67218 187 183 169
1.75917 -0.445343 -2.6546 190 186 172
1.76032 -0.44421 -2.62629 185 183 169
1.75418 -0.441255 -2.58749 192 190 176
1.75515 -0.440108 -2.55954 195 193 181
1.74281 -0.435643 -2.51264 205 201 187
1.73693 -0.432822 -2.47562 228 212 195
1.73159 -0.430156 -2.43982 253 220 197
1.72613 -0.42748 -2.40428 255 229 200
1.72055 -0.424794 -2.369 255 234 200
1.72162 -0.423766 -2.34321 252 230 196
1.72331 -0.4229 -2.31846 251 229 197
1.72426 -0.421862 -2.29292 252 227 196
1.73201 -0.422496 -2.27654 252 225 194
1.73977 -0.423129 -2.26016 249 221 192
1.7607 -0.426956 -2.26068 249 217 192
1.78941 -0.432644 -2.27069 249 215 190
1.81131 -0.436662 -2.27153 251 212 188
1.83333 -0.440689 -2.27211 251 212 188
1.84136 -0.441345 -2.25515 253 215 188
1.83522 -0.438614 -2.22104 250 211 187
1.81472 -0.43248 -2.17017 249 210 186
1.79541 -0.426666 -2.1215 250 211 187
1.78305 -0.422535 -2.08172 248 210 183
1.77699 -0.419922 -2.04978 246 211 183
1.77806 -0.419005 -2.02633 243 208 180
1.77908 -0.418085 -2.00301 246 208 181
1.79318 -0.420239 -1.99442 244 206 179
1.80074 -0.420856 -1.97846 240 206 181
1.8083 -0.421473 -1.9625 238 204 179
1.80921 -0.420543 -1.93941 240 205 177
1.79075 -0.415134 -1.89599 235 201 171
1.78476 -0.412637 -1.86629 233 201 171
1.79212 -0.413239 -1.85073 229 199 169
1.79949 -0.41384 -1.83518 225 194 166
1.81365 -0.416 -1.82646 224 196 167
1.80817 -0.413656 -1.79804 219 193 164
1.79573 -0.409741 -1.76311 217 192 161
1.78389 -0.405987 -1.72926 216 194 162
1.7788 -0.403788 -1.70234 213 191 159
1.78594 -0.40437 -1.68727 210 188 156
1.79926 -0.40635 -1.67797 204 184 152
1.80643 -0.406934 -1.66285 203 183 151
1.81359 -0.407519 -1.64773 204 184 152
1.80823 -0.405297 -1.62138 200 180 148
1.80278 -0.403068 -1.59525 199 179 147
1.7917 -0.399599 -1.5645 200 180 148
1.79869 -0.40017 -1.54973 200 180 146
1.80569 -0.400741 -1.53497 200 182 150
1.81826 -0.402548 -1.52489 200 182 150
1.83809 -0.40595 -1.52068 202 184 152
1.85802 -0.409361 -1.51627 199 181 149
1.87805 -0.41278 -1.51165 173 152 127
1.90546 -0.417805 -1.5126 129 113 96
1.9127 -0.418396 -1.49732 56 55 52
1.91994 -0.418987 -1.48204 58 62 61
1.92062 -0.41815 -1.46176 68 72 71
1.92784 -0.418739 -1.44653 78 83 79
1.92762 -0.417718 -1.42581 85 92 88
1.92155 -0.415438 -1.40097 91 96 92
1.92203 -0.414586 -1.38112 101 102 99
1.92247 -0.413729 -1.36137 111 111 105
1.92956 -0.414307 -1.34641 117 112 102
1.94337 -0.416327 -1.33607 131 125 111
1.97074 -0.421237 -1.33477 133 126 116
1.98555 -0.42345 -1.32468 107 108 105
1.99957 -0.425486 -1.31392 76 88 90
2.00681 -0.426076 -1.29864 60 75 81
2.01404 -0.426667 -1.28336 53 67 75
2.02128 -0.427258 -1.26807 42 60 72
2.02162 -0.426394 -1.24853 27 44 63
2.02105 -0.425343 -1.22856 24 39 58
2.02823 -0.425929 -1.21339 20 37 58
2.02845 -0.425055 -1.19411 25 43 68
2.04261 -0.427103 -1.18305 33 52 80
2.04979 -0.427689 -1.16787 28 48 80
2.04993 -0.426808 -1.14875 30 50 84
2.04295 -0.424454 -1.12584 34 53 89
2.04297 -0.423563 -1.10697 39 59 98
2.05005 -0.424142 -1.09201 45 66 102
2.06429 -0.426196 -1.08079 53 72 108
2.06423 -0.425299 -1.06208 53 72 108
2.07132 -0.425877 -1.04712 57 76 112
2.07841 -0.426456 -1.03215 59 77 116
2.07825 -0.425551 -1.01365 60 79 115
2.08531 -0.426127 -0.99874 62 81 117
2.07779 -0.423729 -0.976968 63 82 118
2.0848 -0.424302 -0.962159 67 86 122
2.08539 -0.423569 -0.944441 62 81 117
2.08502 -0.422646 -0.926404 60 81 117
2.08459 -0.421719 -0.908471 60 80 119
2.09154 -0.422286 -0.893812 61 81 120
2.09848 -0.422853 -0.879153 64 84 123
2.10542 -0.42342 -0.864494 64 82 121
2.11986 -0.42549 -0.852848 68 84 121
2.13434 -0.427564 -0.841098 64 83 119
2.13379 -0.426627 -0.823425 60 79 115
2.14076 -0.427196 -0.808714 60 78 117
2.1335 -0.42493 -0.788742 59 77 116
2.12615 -0.422657 -0.768965 61 81 120
2.1187 -0.420377 -0.749384 58 80 119
2.11787 -0.419417 -0.732315 60 80 119
2.11122 -0.417313 -0.713402 59 79 118
2.11027 -0.416343 -0.69658 58 77 118
2.10347 -0.414227 -0.677992 57 76 117
2.10337 -0.413438 -0.661723 57 76 117
2.11004 -0.413983 -0.647636 59 79 118
2.12355 -0.415866 -0.635594 59 79 118
2.1371 -0.417752 -0.623461 58 78 117
2.14381 -0.418301 -0.609282 57 79 118
2.15053 -0.418849 -0.595104 57 79 118
2.15032 -0.418051 -0.579062 59 81 120
2.14313 -0.415903 -0.561293 60 82 121
2.13586 -0.413748 -0.543705 60 81 122
2.13548 -0.412937 -0.528027 55 79 119
2.13506 -0.412122 -0.51244 58 82 122
2.14163 -0.412658 -0.49858 61 86 124
2.1351 -0.410675 -0.481766 60 85 123
2.13455 -0.40985 -0.466445 58 82 122
2.13396 -0.409021 -0.451215 60 84 124
2.14044 -0.40955 -0.437531 59 85 125
2.14693 -0.410079 -0.423846 66 92 132
2.13398 -0.406904 -0.406461 67 93 133
2.11374 -0.402352 -0.388005 77 102 140
2.10054 -0.399156 -0.37116 120 130 145
2.09341 -0.397124 -0.355612 149 153 153
2.09344 -0.396458 -0.341416 165 166 153
2.09344 -0.395789 -0.327297 155 153 139
2.0934 -0.395117 -0.313256 126 128 117
2.09333 -0.394442 -0.299293 91 104 103
2.08694 -0.392581 -0.284551 72 91 98
2.08047 -0.390715 -0.269966 79 98 105
2.08024 -0.390028 -0.256315 89 109 114
2.07998 -0.389338 -0.242742 102 117 123
2.07969 -0.388644 -0.229247 114 123 127
2.08573 -0.389137 -0.216491 123 132 131
2.08644 -0.388638 -0.203217 127 133 132
2.08606 -0.387938 -0.18991 131 137 136
2.08563 -0.387234 -0.176682 128 134 133
2.08625 -0.386727 -0.163615 127 134 130
2.08576 -0.386017 -0.150536 129 134 130
2.08523 -0.385305 -0.137535 129 134 130
2.07924 -0.383589 -0.124288 130 135 131
2.06122 -0.379666 -0.110542 129 134 130
2.01582 -0.370719 -0.0957872 132 137 133
1.93514 -0.355324 -0.0801933 129 134 130
1.83314 -0.336071 -0.0648887 125 126 123
1.77232 -0.324416 -0.0520856 109 114 110
1.73098 -0.316358 -0.0405269 88 93 89
1.70374 -0.310901 -0.029765 79 77 71
1.68521 -0.307046 -0.0194825 88 85 82
1.67432 -0.304596 -0.00951729 99 96 93
1.67115 -0.303557 0.000267333 106 104 104
1.66794 -0.302514 0.00996091 104 102 103
1.66917 -0.30228 0.0196163 94 94 95
1.68499 -0.304687 0.0294883 90 93 96
1.71666 -0.309947 0.0398568 88 91 94
1.75412 -0.316239 0.0507003 84 87 90
1.78383 -0.321117 0.0616468 71 75 74
1.80117 -0.32376 0.0723768 63 59 47
1.81859 -0.326407 0.0832497 56 48 32
1.82807 -0.327627 0.0938551 65 51 27
1.82841 -0.327209 0.103991 72 57 29
1.82873 -0.326789 0.114075 82 70 46
1.83017 -0.326572 0.124185 90 81 63
1.83853 -0.327589 0.134764 96 91 81
1.85732 -0.330461 0.146203 99 93 86
1.88432 -0.334783 0.158481 99 93 86
1.93238 -0.342832 0.17288 107 99 92
1.97718 -0.35028 0.187429 109 100 89
2.0175 -0.356916 0.20195 113 104 91
2.0228 -0.357349 0.213152 131 124 106
2.01282 -0.355084 0.222663 130 123 105
2.00275 -0.352813 0.232005 131 123 107
1.98787 -0.349703 0.240605 113 108 98
1.94799 -0.34221 0.245842 101 96 91
1.89243 -0.331988 0.248555 101 99 93
1.85323 -0.324663 0.252883 111 110 102
1.84129 -0.322127 0.260619 108 107 99
1.84603 -0.322514 0.270633 108 107 99
1.85077 -0.322901 0.280646 114 113 105
1.8507 -0.322449 0.289905 114 113 105
1.84698 -0.321365 0.298526 114 113 105
1.84806 -0.321118 0.307863 114 113 105
1.84426 -0.320028 0.316329 114 113 105
1.84894 -0.32041 0.326205 114 113 105
1.85362 -0.320791 0.336082 114 113 105
1.8583 -0.321173 0.345959 114 113 105
1.86298 -0.321555 0.355836 113 112 104
1.86274 -0.32109 0.36475 113 112 104
1.86371 -0.320834 0.37386 113 112 104
1.86343 -0.320365 0.382677 113 112 104
1.86436 -0.320107 0.391702 113 112 104
1.86403 -0.319634 0.400421 113 112 104
1.86119 -0.318733 0.408543 113 112 104
1.8608 -0.318255 0.417145 113 112 104
1.86539 -0.31863 0.42684 119 118 110
1.86999 -0.319005 0.436535 119 118 110
1.87458 -0.319379 0.44623 119 118 110
1.88421 -0.320611 0.457147 119 118 110
1.88376 -0.320129 0.465619 119 118 110
1.88835 -0.320504 0.475314 119 118 110
1.88533 -0.319588 0.483059 119 118 110
1.88991 -0.319961 0.492715 119 118 110
1.88556 -0.318826 0.500004 119 118 110
1.87733 -0.317039 0.506169 117 113 106
1.87032 -0.315463 0.512555 117 113 106
1.86583 -0.314316 0.519538 117 113 106
1.86644 -0.314031 0.527888 117 113 106
1.86703 -0.313745 0.536198 117 113 106
1.8676 -0.313457 0.544469 117 113 106
1.86816 -0.313168 0.552702 117 113 106
1.87259 -0.31353 0.562065 117 113 106
1.87703 -0.313892 0.571429 123 119 112
1.87755 -0.3136 0.579583 123 119 112
1.88197 -0.313961 0.588927 123 119 112
1.8864 -0.314322 0.598271 123 119 112
1.89082 -0.314683 0.607615 123 119 112
1.8992 -0.315702 0.618246 123 119 112
1.9076 -0.316722 0.628916 123 119 112
1.91602 -0.317743 0.639625 123 119 112
1.92843 -0.319426 0.651718 121 118 108
1.9369 -0.320451 0.662525 121 118 108
1.95071 -0.322359 0.675217 121 118 108
1.96323 -0.32405 0.687531 121 118 108
1.65453 -0.460134 -2.95487 170 180 168
1.65629 -0.458971 -2.92527 179 185 178
1.65797 -0.457803 -2.89582 182 188 181
1.65959 -0.456629 -2.86651 186 189 181
1.67469 -0.459168 -2.86051 180 182 171
1.68987 -0.461712 -2.85437 182 185 170
1.69827 -0.462398 -2.83664 190 191 176
1.69978 -0.461216 -2.80755 197 198 185
1.71506 -0.463768 -2.80119 216 212 198
1.72346 -0.464453 -2.78346 221 217 203
1.73185 -0.465139 -2.76574 228 218 202
1.74025 -0.465824 -2.74801 214 207 189
1.74864 -0.466509 -2.73028 206 200 186
1.74996 -0.465311 -2.70162 195 191 177
1.75832 -0.465993 -2.68396 191 189 170
1.75237 -0.462897 -2.64472 189 186 169
1.7463 -0.459789 -2.60576 182 180 166
1.75452 -0.460461 -2.58839 187 185 173
1.74165 -0.455612 -2.54025 191 188 178
1.72924 -0.450919 -2.49347 200 198 186
1.7173 -0.446385 -2.44804 222 209 194
1.72524 -0.447033 -2.43128 254 220 200
1.73318 -0.447681 -2.41451 255 230 201
1.73437 -0.446591 -2.38846 254 231 201
1.74228 -0.447237 -2.37176 252 230 198
1.73657 -0.444397 -2.33673 250 225 194
1.73758 -0.443292 -2.31106 250 225 194
1.73234 -0.440609 -2.27739 251 224 193
1.747 -0.442993 -2.26998 252 221 193
1.76103 -0.445206 -2.26155 251 218 190
1.78278 -0.449355 -2.26272 249 214 186
1.79765 -0.451756 -2.25486 251 214 191
1.81259 -0.454162 -2.24687 251 211 189
1.82053 -0.45481 -2.2301 252 213 189
1.8143 -0.451927 -2.19618 250 211 187
1.80153 -0.447443 -2.15486 252 211 187
1.78859 -0.442945 -2.11391 252 212 185
1.77619 -0.438609 -2.07418 249 211 184
1.76434 -0.434437 -2.03564 247 212 184
1.75883 -0.431852 -2.00488 243 208 180
1.76631 -0.432462 -1.9891 246 210 185
1.78036 -0.434677 -1.98063 241 205 180
1.79446 -0.436896 -1.97204 242 207 179
1.79537 -0.435902 -1.94894 242 207 179
1.79621 -0.434903 -1.92596 240 205 177
1.7777 -0.429237 -1.88266 237 202 174
1.77239 -0.426786 -1.85384 233 200 172
1.77372 -0.425945 -1.83221 230 199 171
1.78702 -0.42798 -1.82295 228 197 169
1.79434 -0.428578 -1.80751 219 193 164
1.78877 -0.426105 -1.77924 220 194 165
1.78386 -0.423805 -1.75195 217 191 162
1.78419 -0.422765 -1.73005 213 191 159
1.78524 -0.421901 -1.709 209 189 157
1.78624 -0.421033 -1.68806 206 186 154
1.79957 -0.42307 -1.67876 204 184 150
1.80673 -0.423654 -1.66364 202 182 148
1.80142 -0.421322 -1.63719 201 181 147
1.80227 -0.420442 -1.61655 200 180 146
1.79679 -0.418095 -1.59046 200 181 144
1.79752 -0.417205 -1.57009 202 182 148
1.80453 -0.417778 -1.55528 203 183 149
1.81791 -0.419819 -1.54588 199 181 147
1.82494 -0.420393 -1.53102 201 183 151
1.8448 -0.423913 -1.52677 200 182 150
1.85832 -0.425966 -1.51705 198 180 148
1.88481 -0.430976 -1.51763 177 155 128
1.90577 -0.434705 -1.5134 118 104 87
1.91301 -0.435295 -1.49812 48 48 49
1.92678 -0.437369 -1.48788 50 50 51
1.93404 -0.437962 -1.47254 54 58 58
1.93472 -0.437068 -1.45227 58 62 62
1.92793 -0.434495 -1.4266 62 66 65
1.92185 -0.4321 -1.40176 62 62 62
1.92233 -0.43119 -1.3819 85 82 79
1.92277 -0.430276 -1.36215 102 100 94
1.93656 -0.432351 -1.35187 113 110 100
1.94367 -0.432932 -1.33685 128 122 110
1.97104 -0.438014 -1.33556 132 126 114
1.98586 -0.440292 -1.32548 109 110 102
1.99987 -0.442385 -1.31472 79 90 89
2.01394 -0.444483 -1.30386 61 74 80
2.01435 -0.443567 -1.28416 51 66 72
2.02159 -0.444157 -1.26887 42 59 68
2.02193 -0.443236 -1.24933 28 43 62
2.02135 -0.44212 -1.22936 20 35 54
2.02159 -0.44119 -1.21002 13 30 51
2.02875 -0.441775 -1.1949 22 40 65
2.03591 -0.442359 -1.17978 26 45 73
2.04307 -0.442944 -1.16466 30 51 80
2.04319 -0.442003 -1.14559 29 51 83
2.04325 -0.441059 -1.12662 33 55 89
2.04327 -0.440111 -1.10776 38 59 95
2.05035 -0.440689 -1.09279 44 65 101
2.05744 -0.441268 -1.07783 49 68 104
2.06453 -0.441846 -1.06286 55 74 110
2.07162 -0.442425 -1.0479 55 74 110
2.07871 -0.443003 -1.03293 56 75 111
2.07855 -0.442041 -1.01443 57 76 112
2.08561 -0.442617 -0.999519 59 78 114
2.07809 -0.440104 -0.977741 62 81 117
2.0787 -0.439323 -0.959975 64 83 119
2.07834 -0.438345 -0.941884 62 81 117
2.07794 -0.437362 -0.923896 57 77 116
2.08489 -0.437929 -0.909237 60 80 119
2.09183 -0.438496 -0.894578 61 81 120
2.09877 -0.439062 -0.879919 63 81 120
2.11318 -0.441188 -0.868328 64 82 121
2.1342 -0.444684 -0.859272 63 82 118
2.14121 -0.445256 -0.844463 63 82 118
2.14163 -0.444459 -0.827106 62 81 117
2.14106 -0.443463 -0.809483 61 79 118
2.13379 -0.44109 -0.789506 60 78 117
2.12644 -0.438709 -0.769724 59 79 118
2.11899 -0.436321 -0.750137 64 84 123
2.11145 -0.433925 -0.730744 60 80 119
2.10382 -0.431522 -0.711547 59 78 119
2.1038 -0.43069 -0.695094 59 78 119
2.09698 -0.428471 -0.676546 57 77 116
2.09007 -0.426245 -0.658181 55 74 115
2.0967 -0.426786 -0.644185 58 77 118
2.117 -0.430105 -0.634284 59 79 118
2.14424 -0.434821 -0.626204 61 81 120
2.15884 -0.436962 -0.614217 60 80 119
2.15771 -0.435921 -0.597756 59 79 118
2.15753 -0.435075 -0.581666 62 84 123
2.15036 -0.432828 -0.563847 63 85 124
2.1431 -0.430574 -0.546209 59 81 120
2.14275 -0.429714 -0.530483 60 81 122
2.14235 -0.42885 -0.514848 60 81 122
2.14893 -0.429388 -0.500943 60 84 124
2.14847 -0.428519 -0.485444 60 84 124
2.15503 -0.429055 -0.471584 58 81 124
2.14842 -0.426973 -0.454934 61 84 127
2.14783 -0.426094 -0.439702 60 83 126
2.1472 -0.425211 -0.424561 67 90 133
2.13425 -0.421899 -0.40717 70 94 134
2.11401 -0.417161 -0.388705 77 99 138
2.1008 -0.413828 -0.371853 109 122 141
2.09367 -0.411703 -0.356301 144 153 151
2.0875 -0.409775 -0.341088 165 162 152
2.08748 -0.409061 -0.327006 159 155 141
2.08742 -0.408344 -0.313002 134 134 123
2.08733 -0.407624 -0.299076 105 110 106
2.08719 -0.406901 -0.285228 76 90 93
2.08072 -0.404949 -0.270638 76 96 101
2.0805 -0.404219 -0.256985 83 104 106
2.08024 -0.403485 -0.24341 100 116 119
2.0863 -0.40398 -0.230616 111 123 125
2.08598 -0.403242 -0.217158 121 130 128
2.0867 -0.402707 -0.203882 126 132 131
2.08631 -0.401963 -0.190573 128 134 133
2.08589 -0.401216 -0.177342 127 131 130
2.0865 -0.400673 -0.164274 128 132 131
2.07954 -0.39868 -0.150724 130 135 131
2.07358 -0.396889 -0.137402 127 134 130
2.05021 -0.391777 -0.12318 129 134 130
1.98862 -0.379391 -0.107256 134 139 135
1.91466 -0.36469 -0.0915654 130 136 129
1.84243 -0.350367 -0.0769142 123 130 121
1.77963 -0.337883 -0.063538 116 123 114
1.73844 -0.329537 -0.0516206 96 97 94
1.70692 -0.323047 -0.0404844 76 78 72
1.69178 -0.319675 -0.0300718 87 85 79
1.68097 -0.317131 -0.0199459 98 95 92
1.67451 -0.315417 -0.0100283 106 103 100
1.668 -0.313698 -0.000241037 104 103 100
1.66478 -0.312605 0.00943545 98 98 99
1.666 -0.312348 0.0190723 96 99 107
1.67732 -0.313984 0.0288442 90 91 99
1.69769 -0.317309 0.0389008 92 94 99
1.72606 -0.322117 0.0493654 87 90 93
1.7625 -0.328414 0.0603749 84 89 92
1.78433 -0.331976 0.0711589 74 73 77
1.80626 -0.335546 0.0821381 63 63 57
1.81571 -0.336792 0.0926704 62 53 40
1.8206 -0.337191 0.102996 65 53 31
1.82549 -0.33759 0.113321 84 71 44
1.82577 -0.337139 0.123335 88 79 61
1.83527 -0.338389 0.133971 92 86 79
1.84827 -0.34028 0.144932 90 88 82
1.86247 -0.342389 0.156081 90 88 82
1.88487 -0.345998 0.168061 97 94 84
1.91787 -0.351539 0.181228 104 98 91
1.9475 -0.35645 0.194357 107 99 92
1.96788 -0.359656 0.206772 117 109 102
1.97774 -0.360937 0.218188 121 113 106
1.9723 -0.359424 0.227885 117 108 97
1.96799 -0.358122 0.237607 112 103 92
1.92923 -0.350568 0.242896 95 91 84
1.88431 -0.341916 0.246925 96 96 90
1.84509 -0.334324 0.251219 105 104 101
1.84149 -0.333199 0.260096 102 101 98
1.84144 -0.33272 0.269409 102 101 98
1.84617 -0.333106 0.279396 100 100 94
1.84729 -0.332841 0.288818 100 100 94
1.84356 -0.331706 0.297423 100 100 94
1.83494 -0.329697 0.305131 100 100 94
1.83111 -0.328554 0.313527 100 100 94
1.83211 -0.328279 0.32269 100 100 94
1.83186 -0.327785 0.331592 100 100 94
1.84138 -0.329036 0.342262 100 100 94
1.84969 -0.33007 0.352749 106 104 98
1.85433 -0.330449 0.362554 106 104 98
1.85528 -0.330171 0.371619 106 104 98
1.85498 -0.329671 0.380392 106 104 98
1.85589 -0.329389 0.389372 106 104 98
1.85678 -0.329106 0.398314 106 104 98
1.85267 -0.32794 0.406125 106 104 98
1.85351 -0.327652 0.414963 106 104 98
1.85308 -0.327143 0.423476 106 104 98
1.86266 -0.328399 0.434275 106 104 98
1.86723 -0.328772 0.443931 106 104 98
1.87181 -0.329145 0.453587 106 104 98
1.87133 -0.328632 0.461996 106 104 98
1.87209 -0.328338 0.470671 106 104 98
1.87665 -0.32871 0.480281 106 104 98
1.8812 -0.329081 0.489891 106 104 98
1.88192 -0.328784 0.498489 111 110 102
1.87752 -0.327594 0.50567 111 110 102
1.87435 -0.326623 0.513111 111 110 102
1.86602 -0.324756 0.519045 111 110 102
1.86663 -0.32445 0.527396 111 110 102
1.86335 -0.32347 0.534596 111 110 102
1.86003 -0.322487 0.541719 111 110 102
1.85927 -0.32195 0.54953 111 110 102
1.86368 -0.32231 0.558848 111 110 102
1.8681 -0.322671 0.568166 108 107 99
1.87251 -0.323031 0.577484 108 107 99
1.87692 -0.323391 0.586802 108 107 99
1.8774 -0.323074 0.594873 108 107 99
1.88575 -0.324111 0.605438 108 107 99
1.89544 -0.325377 0.616471 108 107 99
1.90382 -0.326418 0.62712 108 107 99
1.91223 -0.32746 0.637809 108 107 99
1.92066 -0.328504 0.648536 109 108 100
1.93309 -0.330231 0.660667 109 108 100
1.9469 -0.332188 0.673337 109 108 100
1.95941 -0.333922 0.68563 109 108 100
1.64825 -0.477887 -2.94392 173 183 171
1.64328 -0.474713 -2.9026 179 186 177
1.6449 -0.47346 -2.87329 179 186 177
1.65994 -0.476072 -2.86743 183 187 176
1.67505 -0.47869 -2.86143 176 179 166
1.69023 -0.481313 -2.85529 180 181 168
1.69862 -0.481999 -2.83757 185 186 171
1.70014 -0.480738 -2.80847 194 195 180
1.70158 -0.479471 -2.77952 206 207 194
1.70296 -0.478199 -2.75071 212 208 194
1.72522 -0.482785 -2.75551 208 204 190
1.73358 -0.483468 -2.73785 200 197 180
1.74195 -0.48415 -2.7202 193 189 175
1.75031 -0.484833 -2.70254 188 184 172
1.75867 -0.485515 -2.68489 196 192 180
1.75273 -0.482261 -2.64563 190 186 172
1.74664 -0.478995 -2.60667 183 179 165
1.74765 -0.477693 -2.57864 181 179 167
1.72814 -0.470814 -2.52094 186 187 174
1.71632 -0.466074 -2.47524 195 193 181
1.70432 -0.461318 -2.42993 228 208 194
1.71889 -0.463766 -2.42273 252 219 196
1.73352 -0.466218 -2.41539 255 227 198
1.74146 -0.466866 -2.39862 255 230 199
1.75618 -0.469327 -2.39109 250 228 194
1.75734 -0.468163 -2.3651 250 225 192
1.7516 -0.465176 -2.33013 252 225 194
1.74573 -0.46218 -2.29542 249 221 192
1.75355 -0.462818 -2.27891 252 221 193
1.76136 -0.463456 -2.26241 248 216 186
1.76291 -0.46245 -2.23795 250 216 186
1.7707 -0.463086 -2.2215 251 216 188
1.78482 -0.465371 -2.2129 250 215 187
1.79263 -0.466009 -2.19639 252 214 187
1.79407 -0.464993 -2.17216 251 214 185
1.78834 -0.462133 -2.13953 251 214 185
1.78248 -0.459264 -2.10715 250 212 185
1.77005 -0.454725 -2.06747 251 213 186
1.75816 -0.450357 -2.02898 248 210 183
1.75915 -0.449305 -2.00571 243 207 182
1.76663 -0.449915 -1.98992 243 207 182
1.7741 -0.450525 -1.97414 243 208 180
1.78818 -0.452807 -1.96561 241 206 178
1.80231 -0.455093 -1.95697 240 205 177
1.80319 -0.454031 -1.93393 240 205 177
1.79138 -0.449795 -1.89763 236 205 177
1.77941 -0.445546 -1.86167 231 200 172
1.78002 -0.444462 -1.8392 226 197 171
1.78132 -0.443562 -1.81762 224 196 167
1.78861 -0.444157 -1.80223 222 194 165
1.78301 -0.44156 -1.77401 219 196 166
1.78416 -0.440647 -1.75275 217 194 164
1.7845 -0.439542 -1.73084 213 192 162
1.78555 -0.43862 -1.70979 207 187 155
1.78654 -0.437695 -1.68885 204 184 150
1.79368 -0.438277 -1.67378 202 182 148
1.79461 -0.437346 -1.65299 199 179 145
1.79548 -0.436411 -1.6323 199 179 145
1.79631 -0.435471 -1.61172 199 180 143
1.80337 -0.436048 -1.5968 201 182 145
1.81675 -0.438146 -1.58741 202 182 148
1.83017 -0.440249 -1.5779 200 182 148
1.84364 -0.442355 -1.5683 199 181 149
1.8444 -0.44141 -1.54787 200 180 146
1.8451 -0.44046 -1.52755 202 182 148
1.85862 -0.442571 -1.51784 199 181 149
1.88511 -0.447753 -1.51843 172 150 123
1.90607 -0.451604 -1.5142 114 104 88
1.91331 -0.452195 -1.49892 48 46 46
1.92708 -0.454326 -1.48868 50 50 51
1.93435 -0.454919 -1.47334 48 48 49
1.94161 -0.455511 -1.45801 54 58 58
1.92162 -0.449726 -1.4225 61 65 65
1.92215 -0.448763 -1.40254 73 73 74
1.91598 -0.446245 -1.3779 86 86 86
1.92307 -0.446824 -1.36294 104 102 96
1.93686 -0.448956 -1.35265 109 105 98
1.94397 -0.449537 -1.33764 124 118 106
1.97135 -0.454792 -1.33636 129 123 111
1.98616 -0.457134 -1.32628 114 112 106
2.00698 -0.460847 -1.31999 88 94 94
2.01425 -0.46144 -1.30466 60 73 79
2.01466 -0.460466 -1.28495 52 67 73
2.0219 -0.461057 -1.26967 38 54 66
2.02223 -0.460077 -1.25012 29 45 62
2.02945 -0.460666 -1.23489 21 36 55
2.03666 -0.461255 -1.21966 20 37 56
2.04388 -0.461844 -1.20443 23 39 63
2.04321 -0.460657 -1.18463 27 44 72
2.0504 -0.461244 -1.16946 26 44 74
2.05054 -0.460248 -1.15033 30 50 82
2.05063 -0.459248 -1.13131 29 51 85
2.04357 -0.456658 -1.10854 35 57 91
2.05065 -0.457237 -1.09357 41 60 96
2.05774 -0.457815 -1.07861 46 67 103
2.05766 -0.456801 -1.05995 54 70 107
2.06472 -0.457378 -1.04504 55 74 110
2.07178 -0.457954 -1.03012 57 76 112
2.07885 -0.458531 -1.01521 59 78 114
2.07864 -0.457507 -0.996811 60 79 115
2.07838 -0.456479 -0.978515 62 80 119
2.07167 -0.454043 -0.957363 64 83 119
2.07864 -0.454612 -0.942652 62 81 117
2.07824 -0.453572 -0.924662 61 80 116
2.08518 -0.454139 -0.910003 61 79 118
2.09954 -0.456318 -0.898519 63 81 120
2.11395 -0.458501 -0.88693 64 82 121
2.12748 -0.460486 -0.874854 63 81 120
2.14199 -0.462677 -0.863065 62 80 119
2.14903 -0.463252 -0.848204 61 80 116
2.14852 -0.462204 -0.830428 61 80 116
2.14135 -0.45973 -0.810251 59 79 118
2.13409 -0.457249 -0.790269 57 77 116
2.12673 -0.454761 -0.770482 59 79 118
2.11928 -0.452265 -0.75089 59 79 118
2.11174 -0.449761 -0.731493 60 80 119
2.1041 -0.44725 -0.71229 60 80 119
2.09734 -0.444936 -0.693602 55 75 114
2.08372 -0.441181 -0.672908 54 74 113
2.07676 -0.438851 -0.65463 57 77 116
2.08335 -0.439389 -0.640724 59 79 118
2.11044 -0.444243 -0.632969 60 78 117
2.14452 -0.450549 -0.626947 57 79 118
2.166 -0.45419 -0.616922 58 80 119
2.17279 -0.454744 -0.6026 59 81 120
2.17265 -0.453851 -0.586411 58 80 119
2.16453 -0.451301 -0.568229 59 81 120
2.16428 -0.450399 -0.552273 58 80 119
2.157 -0.448043 -0.534676 60 82 121
2.15664 -0.447133 -0.518947 58 80 119
2.15624 -0.446219 -0.50331 58 79 120
2.16285 -0.446758 -0.489359 62 83 124
2.16238 -0.445839 -0.473858 60 82 121
2.16188 -0.444917 -0.458448 58 82 122
2.14811 -0.441276 -0.440419 56 79 122
2.14136 -0.439088 -0.424064 67 90 133
2.12736 -0.435429 -0.40651 70 93 136
2.11427 -0.431969 -0.389404 77 98 139
2.09386 -0.427031 -0.371269 104 118 142
2.08155 -0.423761 -0.354878 140 149 148
2.07534 -0.421743 -0.339739 162 161 153
2.07528 -0.420983 -0.325733 158 157 140
2.08143 -0.421485 -0.312744 130 130 124
2.08759 -0.421987 -0.299754 104 109 105
2.08745 -0.421221 -0.285904 76 92 90
2.08729 -0.420452 -0.272132 75 96 98
2.08708 -0.41968 -0.258438 83 105 105
2.0805 -0.417633 -0.244078 101 115 118
2.08656 -0.418127 -0.231284 113 123 125
2.08624 -0.417346 -0.217824 119 128 127
2.09228 -0.417839 -0.205068 124 130 129
2.08657 -0.415988 -0.191235 126 132 131
2.08614 -0.415198 -0.178003 128 133 129
2.08675 -0.414619 -0.164933 127 132 128
2.07979 -0.41254 -0.151379 125 132 128
2.04464 -0.404889 -0.136109 130 135 131
1.98323 -0.392073 -0.119762 134 139 135
1.90513 -0.376007 -0.103336 133 138 134
1.8331 -0.361192 -0.088225 122 128 121
1.77922 -0.349997 -0.0748189 111 114 106
1.74256 -0.342222 -0.0627463 99 98 90
1.71775 -0.3368 -0.0515305 75 78 70
1.69499 -0.331795 -0.0407185 82 83 75
1.68424 -0.329155 -0.0304512 95 95 89
1.68117 -0.328023 -0.0204604 103 101 101
1.67805 -0.326888 -0.0105607 103 103 103
1.67154 -0.325098 -0.000750226 93 96 99
1.66833 -0.323955 0.00894802 94 97 100
1.66171 -0.322156 0.018518 89 93 98
1.66627 -0.322528 0.0281478 88 89 97
1.67872 -0.324425 0.0379561 83 86 89
1.70252 -0.328508 0.0481754 83 87 87
1.72303 -0.331943 0.0585 83 87 87
1.75157 -0.336917 0.0693214 86 89 92
1.77683 -0.341244 0.0802614 78 82 82
1.7942 -0.344046 0.0910295 64 62 56
1.80705 -0.345976 0.101682 60 58 46
1.81191 -0.346372 0.11193 67 58 40
1.82137 -0.347648 0.122487 77 69 53
1.82624 -0.348045 0.13276 84 85 70
1.83573 -0.349323 0.143395 89 90 82
1.84526 -0.350604 0.154082 83 85 79
1.85364 -0.351666 0.164718 88 83 78
1.87255 -0.35472 0.176382 88 85 82
1.89153 -0.357779 0.188202 97 91 89
1.90942 -0.360624 0.200055 102 95 90
1.92854 -0.363695 0.212181 103 96 91
1.93831 -0.364995 0.223375 103 93 91
1.93863 -0.364518 0.233481 87 84 81
1.90691 -0.358028 0.239513 82 81 78
1.86668 -0.349961 0.244055 89 87 88
1.83695 -0.343884 0.24956 97 95 95
1.83332 -0.342707 0.258394 97 95 95
1.83325 -0.342198 0.267662 97 95 95
1.82955 -0.341015 0.276334 97 95 96
1.82581 -0.339828 0.284915 97 95 96
1.82202 -0.338638 0.293404 97 95 96
1.81819 -0.337445 0.301803 97 95 96
1.81553 -0.336473 0.310319 97 95 96
1.81527 -0.335948 0.319184 97 95 96
1.81986 -0.336323 0.328878 97 95 96
1.82935 -0.3376 0.339481 97 95 96
1.83763 -0.338654 0.349902 99 97 98
1.84224 -0.33903 0.359642 99 97 98
1.84686 -0.339407 0.369383 99 97 98
1.84776 -0.339103 0.378364 99 97 98
1.84741 -0.338571 0.387048 99 97 98
1.85201 -0.338946 0.396743 99 97 98
1.85287 -0.338638 0.40562 99 97 98
1.85371 -0.338329 0.414459 99 97 98
1.85328 -0.337791 0.422973 102 100 100
1.85408 -0.337479 0.431727 102 100 100
1.85863 -0.33785 0.441337 102 100 100
1.86318 -0.338222 0.450948 102 100 100
1.86773 -0.338593 0.460558 102 100 100
1.86849 -0.338277 0.469215 102 100 100
1.87303 -0.338648 0.478806 102 100 100
1.87757 -0.339019 0.488397 102 100 100
1.88212 -0.33939 0.497988 103 101 101
1.87771 -0.338149 0.505171 103 101 101
1.87455 -0.337135 0.512615 103 101 101
1.8662 -0.335196 0.518552 103 101 101
1.86295 -0.334175 0.525813 103 101 101
1.85966 -0.333152 0.532996 103 101 101
1.85504 -0.331893 0.539725 103 101 101
1.85557 -0.331558 0.547895 103 101 101
1.85997 -0.331918 0.557193 103 101 101
1.86437 -0.332277 0.566492 103 101 101
1.86486 -0.33194 0.574583 103 101 101
1.86533 -0.3316 0.582635 103 101 101
1.86971 -0.331958 0.591895 103 101 101
1.87805 -0.333016 0.60242 103 101 101
1.88639 -0.334075 0.612984 103 101 101
1.89476 -0.335135 0.623587 103 101 101
1.90845 -0.337133 0.635995 103 101 101
1.92085 -0.3389 0.648045 106 104 104
1.92929 -0.339967 0.658811 106 104 104
1.94176 -0.34174 0.670998 106 104 104
1.9556 -0.34375 0.68373 106 104 104
1.64195 -0.495482 -2.93298 176 178 167
1.63695 -0.492147 -2.89172 182 184 173
1.63853 -0.490812 -2.86247 187 188 180
1.64679 -0.491487 -2.84503 181 182 174
1.66184 -0.494178 -2.83918 178 180 169
1.67695 -0.496875 -2.83319 180 178 166
1.68528 -0.497555 -2.8156 182 180 168
1.68672 -0.496209 -2.78664 193 194 181
1.6881 -0.494858 -2.75783 198 200 189
1.70331 -0.497563 -2.75162 205 203 191
1.71859 -0.500273 -2.74527 202 198 184
1.73394 -0.50299 -2.73877 195 192 175
1.73525 -0.501633 -2.7101 193 190 173
1.74357 -0.502313 -2.69252 193 189 175
1.7519 -0.502992 -2.67494 192 190 178
1.75308 -0.501625 -2.64655 188 186 174
1.74699 -0.498201 -2.60758 182 182 171
1.748 -0.49682 -2.57955 180 180 169
1.72848 -0.489639 -2.52182 184 184 173
1.71666 -0.484683 -2.47612 196 192 180
1.70466 -0.479712 -2.4308 221 204 189
1.71253 -0.480355 -2.41417 245 214 195
1.72713 -0.482877 -2.4069 254 225 199
1.74179 -0.485404 -2.3995 255 227 198
1.75652 -0.487936 -2.39197 250 225 194
1.76449 -0.488587 -2.37514 252 225 194
1.76562 -0.487348 -2.34921 249 222 189
1.75981 -0.484214 -2.31436 250 220 188
1.75388 -0.481069 -2.27978 249 217 185
1.74852 -0.478103 -2.24634 250 216 186
1.74304 -0.475129 -2.21315 250 216 186
1.74444 -0.474046 -2.18899 249 214 186
1.75844 -0.476385 -2.18064 252 214 187
1.7732 -0.47892 -2.17303 252 215 186
1.78093 -0.479551 -2.15671 250 212 185
1.78866 -0.480182 -2.14039 248 213 185
1.78281 -0.477177 -2.108 250 212 185
1.77683 -0.474161 -2.07586 249 212 183
1.76497 -0.469601 -2.0373 246 209 180
1.76599 -0.468487 -2.01397 244 209 181
1.77349 -0.469099 -1.99812 245 207 180
1.78099 -0.469711 -1.98228 242 207 179
1.8017 -0.473796 -1.98096 240 206 181
1.81589 -0.476152 -1.9722 238 204 179
1.81682 -0.47503 -1.94904 237 204 176
1.80432 -0.470418 -1.91183 234 201 173
1.79912 -0.467732 -1.88278 231 199 174
1.79306 -0.464842 -1.85317 224 195 169
1.79441 -0.463888 -1.83147 219 192 166
1.78892 -0.461178 -1.80303 218 195 165
1.78332 -0.45846 -1.77481 218 195 165
1.77762 -0.455732 -1.74681 218 195 165
1.77869 -0.454756 -1.7257 215 192 162
1.77357 -0.452209 -1.69882 209 188 158
1.77452 -0.451222 -1.67798 204 184 152
1.78161 -0.451801 -1.66301 201 181 149
1.78869 -0.452379 -1.64805 201 181 149
1.80202 -0.454531 -1.63875 200 180 148
1.80913 -0.455112 -1.62374 200 180 148
1.82253 -0.45727 -1.61429 201 183 149
1.83598 -0.459432 -1.60474 198 180 146
1.84314 -0.460016 -1.58962 200 182 148
1.85667 -0.462184 -1.57991 201 183 151
1.8447 -0.458014 -1.54865 199 181 147
1.8454 -0.457007 -1.52833 200 182 148
1.85892 -0.459175 -1.51862 199 181 149
1.88541 -0.464531 -1.51922 173 150 125
1.8999 -0.46691 -1.50984 112 99 84
1.90711 -0.467499 -1.49461 43 41 41
1.92086 -0.469685 -1.48443 39 39 40
1.93465 -0.471875 -1.47415 37 41 40
1.94192 -0.472468 -1.45881 44 47 50
1.92193 -0.466446 -1.42329 59 58 62
1.91582 -0.46382 -1.39849 65 68 71
1.91628 -0.462792 -1.37868 81 85 85
1.92337 -0.463371 -1.36372 99 96 93
1.93046 -0.463949 -1.34875 101 100 92
1.94427 -0.466142 -1.33842 120 113 103
1.9649 -0.469953 -1.33257 124 119 109
1.97884 -0.472156 -1.32198 114 113 105
2.00049 -0.476184 -1.31632 84 89 92
2.00772 -0.476775 -1.30103 61 74 80
2.02182 -0.478989 -1.29013 50 65 71
2.0222 -0.477956 -1.27047 38 52 62
2.02944 -0.478547 -1.25519 25 42 56
2.03668 -0.479138 -1.2399 22 37 56
2.04392 -0.479729 -1.22462 24 41 60
2.05116 -0.48032 -1.20934 26 43 64
2.0584 -0.48091 -1.19405 29 46 74
2.05861 -0.479863 -1.17476 31 48 76
2.05789 -0.478607 -1.15508 28 46 76
2.058 -0.477552 -1.136 29 46 79
2.05806 -0.476493 -1.11703 32 51 87
2.05095 -0.473784 -1.09435 38 59 95
2.05089 -0.472715 -1.07564 45 66 102
2.05078 -0.471641 -1.05703 52 71 107
2.05782 -0.472216 -1.04217 54 73 109
2.06486 -0.47279 -1.02731 56 75 111
2.0719 -0.473365 -1.01245 57 76 112
2.07167 -0.472281 -0.994097 59 77 116
2.065 -0.469742 -0.972843 60 78 117
2.07197 -0.47031 -0.958132 61 81 120
2.07893 -0.470879 -0.943421 60 81 117
2.0859 -0.471448 -0.92871 55 76 112
2.10027 -0.473684 -0.917228 60 79 115
2.11375 -0.475716 -0.905245 62 81 117
2.12821 -0.477961 -0.893562 61 80 116
2.14272 -0.480209 -0.881775 63 82 118
2.14229 -0.479109 -0.863841 63 82 118
2.14933 -0.479684 -0.84898 61 80 116
2.14222 -0.477109 -0.828649 62 81 117
2.13408 -0.474315 -0.808154 60 79 115
2.12679 -0.471725 -0.788219 57 76 112
2.1194 -0.469126 -0.768478 60 78 117
2.10524 -0.465043 -0.746562 62 80 119
2.09765 -0.462428 -0.727257 60 80 119
2.09093 -0.460017 -0.708473 60 80 119
2.07737 -0.456117 -0.687636 57 77 116
2.06368 -0.452206 -0.667072 54 73 114
2.06442 -0.451468 -0.651375 55 76 117
2.08363 -0.454765 -0.64145 55 76 117
2.11072 -0.45977 -0.633703 58 78 117
2.14481 -0.466277 -0.62769 57 79 118
2.16629 -0.470026 -0.61767 57 79 118
2.17307 -0.47058 -0.603348 58 80 119
2.17293 -0.469637 -0.587156 60 82 121
2.17176 -0.468477 -0.570794 58 81 117
2.1785 -0.469027 -0.55657 59 79 118
2.17126 -0.466573 -0.538878 61 81 120
2.16393 -0.464113 -0.521367 59 81 120
2.16355 -0.463151 -0.505682 58 82 122
2.16313 -0.462185 -0.490088 59 80 121
2.16266 -0.461215 -0.474584 59 80 121
2.15607 -0.458948 -0.45788 62 83 124
2.14127 -0.454946 -0.439675 61 85 125
2.13449 -0.452663 -0.423361 63 86 129
2.12763 -0.450374 -0.407216 69 92 135
2.11454 -0.446778 -0.390104 76 97 138
2.08796 -0.440351 -0.370863 104 119 140
2.07562 -0.436949 -0.354505 142 147 150
2.06318 -0.433539 -0.338382 159 161 150
2.06931 -0.434039 -0.325432 158 156 142
2.07545 -0.43454 -0.312481 133 133 122
2.08158 -0.435041 -0.299531 102 108 107
2.08143 -0.43423 -0.285718 75 91 94
2.08124 -0.433417 -0.271983 72 93 95
2.08101 -0.4326 -0.258326 84 105 107
2.07441 -0.430465 -0.244001 96 113 114
2.08045 -0.430958 -0.231245 106 121 122
2.08118 -0.430352 -0.217933 115 126 125
2.08721 -0.430844 -0.205211 125 131 130
2.08682 -0.430014 -0.191898 129 134 130
2.08639 -0.429181 -0.178663 129 135 128
2.0741 -0.425916 -0.164568 128 133 129
2.04446 -0.419106 -0.149433 129 134 130
1.98325 -0.405862 -0.132629 129 134 130
1.9043 -0.389042 -0.115578 128 133 129
1.82379 -0.37196 -0.0994813 127 132 128
1.77443 -0.361279 -0.0859432 112 118 111
1.74115 -0.353907 -0.0737497 98 98 92
1.71754 -0.348521 -0.0623697 80 76 69
1.70256 -0.344903 -0.051594 83 81 75
1.69188 -0.342169 -0.0411595 95 95 89
1.68444 -0.340098 -0.0309682 101 103 97
1.68136 -0.338916 -0.0209749 102 102 102
1.67824 -0.33773 -0.0110727 93 97 97
1.67174 -0.335869 -0.00125909 92 97 100
1.66517 -0.334002 0.00842471 89 94 97
1.65853 -0.33213 0.0179785 88 93 96
1.65971 -0.331827 0.0275329 79 81 86
1.66426 -0.332198 0.0371238 79 77 83
1.67558 -0.333921 0.0469046 78 80 85
1.69148 -0.336549 0.0569159 85 88 91
1.71199 -0.340085 0.0672358 88 91 94
1.74056 -0.345211 0.0780957 81 84 87
1.76469 -0.349442 0.088998 80 84 84
1.79007 -0.353908 0.100185 64 70 63
1.80407 -0.356115 0.1109 73 69 57
1.81351 -0.357418 0.12141 77 73 61
1.81836 -0.357813 0.131638 82 77 72
1.82667 -0.358891 0.142136 86 84 78
1.83153 -0.359287 0.152383 82 83 80
1.83638 -0.359684 0.16263 84 84 78
1.85058 -0.361906 0.173755 82 83 75
1.86014 -0.363219 0.184518 83 89 82
1.87324 -0.36522 0.195702 89 88 85
1.88757 -0.367453 0.207105 95 92 89
1.90194 -0.369691 0.218613 95 92 89
1.90217 -0.369178 0.228519 93 90 87
1.87985 -0.364295 0.23555 89 87 87
1.85381 -0.358711 0.241816 86 86 86
1.82403 -0.352423 0.247259 95 94 91
1.82037 -0.351193 0.256025 95 94 91
1.81667 -0.349959 0.264699 95 94 91
1.81293 -0.348723 0.273281 95 94 91
1.80553 -0.346788 0.281211 95 94 91
1.80652 -0.34647 0.290369 95 94 91
1.80628 -0.345918 0.299287 95 94 91
1.81087 -0.346293 0.308982 95 94 91
1.81181 -0.345971 0.318036 95 94 91
1.82006 -0.347043 0.328372 95 94 91
1.82098 -0.346719 0.337387 95 94 91
1.82556 -0.347093 0.347062 95 96 93
1.83015 -0.347467 0.356738 95 96 93
1.83473 -0.347841 0.366413 95 96 93
1.83931 -0.348215 0.376089 95 96 93
1.84389 -0.348589 0.385764 95 96 93
1.84848 -0.348963 0.395439 95 96 93
1.85306 -0.349337 0.405115 95 96 93
1.85764 -0.349711 0.41479 95 96 93
1.85347 -0.348439 0.42247 97 96 93
1.85051 -0.3474 0.430351 97 96 93
1.85128 -0.347063 0.439047 97 96 93
1.85078 -0.34649 0.4474 97 96 93
1.8553 -0.346859 0.456946 97 96 93
1.85982 -0.347228 0.466491 97 96 93
1.86942 -0.348543 0.477333 97 96 93
1.87777 -0.349624 0.487896 97 96 93
1.88613 -0.350706 0.498498 98 96 96
1.88302 -0.349653 0.506047 98 96 96
1.87474 -0.347647 0.512118 98 96 96
1.86639 -0.345636 0.518059 98 96 96
1.86314 -0.344572 0.525322 98 96 96
1.85985 -0.343505 0.532507 98 96 96
1.85523 -0.342197 0.539238 98 96 96
1.85575 -0.34184 0.547409 98 96 96
1.85626 -0.341483 0.55554 98 96 96
1.85674 -0.341123 0.563633 99 97 97
1.85721 -0.340762 0.571686 99 97 97
1.85766 -0.3404 0.5797 99 97 97
1.86203 -0.340756 0.588921 99 97 97
1.87034 -0.341834 0.599406 99 97 97
1.88263 -0.343635 0.611214 99 97 97
1.89099 -0.344716 0.621797 99 97 97
1.90466 -0.346764 0.634182 99 97 97
1.91705 -0.348573 0.646211 98 96 96
1.92549 -0.349661 0.656956 98 96 96
1.93394 -0.35075 0.66774 98 96 96
1.94643 -0.352567 0.679965 98 96 96
1.64231 -0.515004 -2.9339 180 181 178
1.63062 -0.509423 -2.88082 177 184 175
1.63216 -0.508007 -2.85165 184 186 175
1.64039 -0.508678 -2.83428 182 185 172
1.6554 -0.511446 -2.8285 179 179 168
1.65684 -0.510021 -2.79954 178 176 164
1.66507 -0.510693 -2.78217 186 184 170
1.66641 -0.50926 -2.75343 196 194 182
1.68845 -0.514143 -2.75874 200 198 186
1.70366 -0.516927 -2.75254 202 200 188
1.72593 -0.521829 -2.75735 193 194 179
1.72727 -0.520396 -2.7286 191 192 177
1.7356 -0.521076 -2.71102 190 191 178
1.73684 -0.519635 -2.68249 190 191 178
1.74513 -0.520312 -2.66498 187 188 175
1.75343 -0.520989 -2.64746 184 184 173
1.74734 -0.517407 -2.60848 180 180 169
1.74834 -0.515947 -2.58045 180 180 169
1.72882 -0.508464 -2.52271 181 178 168
1.717 -0.503293 -2.477 194 189 179
1.71165 -0.500052 -2.44117 213 199 187
1.71956 -0.500697 -2.42447 245 214 193
1.72747 -0.501343 -2.40777 254 222 197
1.73538 -0.501989 -2.39107 255 226 196
1.74329 -0.502634 -2.37437 251 224 193
1.76483 -0.507196 -2.37602 252 225 194
1.76595 -0.505886 -2.35008 253 223 193
1.76702 -0.504571 -2.32427 251 219 189
1.75421 -0.499319 -2.28064 249 217 187
1.7426 -0.494446 -2.23917 251 218 190
1.73082 -0.489558 -2.19807 250 215 187
1.73147 -0.488209 -2.17315 251 216 188
1.73908 -0.48883 -2.15707 251 216 188
1.76011 -0.493211 -2.15744 249 214 186
1.77417 -0.49562 -2.14897 250 212 185
1.78899 -0.498232 -2.14124 251 211 184
1.78957 -0.496877 -2.11646 251 211 184
1.7908 -0.495716 -2.09264 251 211 184
1.77828 -0.490767 -2.05312 248 208 181
1.77282 -0.487798 -2.02223 248 208 181
1.78035 -0.488413 -2.00633 246 208 181
1.79446 -0.490826 -1.99775 246 208 181
1.80862 -0.493244 -1.98905 241 206 178
1.82284 -0.495666 -1.98024 240 205 177
1.8238 -0.494482 -1.95702 239 204 176
1.81132 -0.489679 -1.91974 237 204 176
1.8054 -0.486671 -1.88984 231 200 172
1.80011 -0.483856 -1.86095 227 199 170
1.78795 -0.479218 -1.82537 220 193 167
1.78243 -0.476383 -1.79698 218 194 167
1.77756 -0.473742 -1.76957 216 192 165
1.77183 -0.470891 -1.74161 217 194 164
1.77287 -0.469855 -1.72056 213 192 162
1.77387 -0.468814 -1.69961 210 189 159
1.77482 -0.46777 -1.67876 208 187 157
1.7881 -0.469975 -1.66957 203 183 151
1.80764 -0.473814 -1.66601 202 182 150
1.82104 -0.476029 -1.65657 204 186 154
1.83527 -0.478453 -1.64772 200 182 150
1.83541 -0.477202 -1.62622 200 182 150
1.83629 -0.476152 -1.60553 200 182 150
1.84345 -0.476736 -1.59041 199 181 149
1.84425 -0.47568 -1.56987 200 182 150
1.83222 -0.471333 -1.53871 198 180 146
1.83929 -0.47191 -1.5238 197 179 145
1.85922 -0.47578 -1.51941 195 177 143
1.89299 -0.483163 -1.52587 168 146 119
1.8929 -0.481894 -1.50484 107 92 77
1.90009 -0.482481 -1.48967 31 30 27
1.91463 -0.48493 -1.48018 30 31 28
1.93496 -0.488832 -1.47495 33 37 36
1.93564 -0.487766 -1.45466 43 47 47
1.92223 -0.483166 -1.42408 52 56 56
1.91612 -0.480424 -1.39927 64 68 68
1.91658 -0.47934 -1.37946 80 84 84
1.92367 -0.479918 -1.3645 97 96 93
1.93076 -0.480497 -1.34953 97 95 89
1.93784 -0.481075 -1.33457 117 112 102
1.95169 -0.483327 -1.32419 125 120 110
1.97236 -0.487258 -1.31824 114 113 105
1.99399 -0.491406 -1.31264 87 91 90
2.00803 -0.493674 -1.30183 62 73 77
2.01527 -0.494265 -1.28655 53 66 72
2.02251 -0.494856 -1.27127 37 54 61
2.02975 -0.495447 -1.25598 24 38 55
2.03699 -0.496037 -1.2407 22 37 56
2.04422 -0.496628 -1.22542 23 40 59
2.04449 -0.495528 -1.20602 29 46 67
2.0517 -0.496117 -1.19079 29 46 74
2.05891 -0.496705 -1.17556 26 44 74
2.06613 -0.497294 -1.16033 26 44 74
2.06538 -0.495971 -1.1407 28 45 78
2.06547 -0.494857 -1.12167 32 52 86
2.05838 -0.492035 -1.09894 37 56 92
2.05119 -0.489204 -1.07642 43 64 100
2.05108 -0.488074 -1.05781 46 67 103
2.05092 -0.486939 -1.0393 52 73 109
2.05793 -0.487511 -1.02449 55 74 110
2.06495 -0.488084 -1.00968 56 74 113
2.0656 -0.487155 -0.991815 60 78 117
2.06529 -0.486009 -0.973612 60 78 117
2.07226 -0.486577 -0.9589 61 79 118
2.07923 -0.487146 -0.944189 58 78 117
2.0862 -0.487715 -0.929478 55 75 114
2.10703 -0.491519 -0.920827 55 75 114
2.12889 -0.495546 -0.91238 59 79 118
2.13595 -0.496122 -0.897467 62 80 119
2.14302 -0.496699 -0.882554 62 81 117
2.14259 -0.495542 -0.864617 61 80 116
2.13552 -0.492862 -0.844183 63 82 118
2.12743 -0.489958 -0.823579 62 81 117
2.12018 -0.487264 -0.803541 60 79 115
2.11284 -0.484561 -0.783698 58 78 117
2.10541 -0.481851 -0.764051 59 79 118
2.09884 -0.479352 -0.744937 60 80 119
2.09122 -0.476628 -0.725672 59 79 118
2.07775 -0.472583 -0.704646 58 78 117
2.06414 -0.468528 -0.683893 55 75 114
2.05138 -0.464682 -0.663726 54 74 113
2.0579 -0.465215 -0.649951 57 77 116
2.0839 -0.470141 -0.642177 52 73 114
2.111 -0.475297 -0.634436 57 78 119
2.13137 -0.478923 -0.624414 56 78 117
