ply
format ascii 1.0
comment pointcloud saved from PyCharm
element vertex 1291
property float32 x
property float32 y
property float32 z
property uchar blue
property uchar green
property uchar red
end_header
1.83199 0.441332 2.4201 155 149 142
1.80481 0.439488 2.41857 150 146 139
1.79356 0.441524 2.4384 153 149 137
1.76655 0.439679 2.4368 149 147 135
1.74743 0.439774 2.44592 152 150 138
1.7283 0.43987 2.45503 144 139 129
1.71672 0.441907 2.47502 136 131 121
1.69751 0.442003 2.48417 141 135 128
1.6783 0.442099 2.49333 130 125 115
1.65179 0.440251 2.49148 136 132 125
1.62546 0.438403 2.48956 155 151 139
1.60642 0.438498 2.49863 153 149 137
1.59441 0.440537 2.51883 142 136 122
1.58919 0.444523 2.55026 142 136 115
1.5773 0.446714 2.57151 151 146 123
1.55791 0.446811 2.58075 150 146 134
1.53131 0.444811 2.57784 155 151 139
1.49217 0.439067 2.55308 148 150 132
1.46056 0.435417 2.5403 151 158 131
1.42879 0.431616 2.5265 159 157 143
1.41644 0.433658 2.54686 162 158 146
1.39764 0.433751 2.55581 161 157 143
1.37885 0.433845 2.56477 140 135 125
1.36005 0.433939 2.57372 140 136 122
1.34126 0.434033 2.58268 153 151 139
1.32246 0.434126 2.59164 155 154 137
1.29781 0.432269 2.58891 160 160 141
1.27377 0.430562 2.58701 159 161 137
1.24989 0.428853 2.58503 154 159 134
1.23133 0.428946 2.59387 146 146 122
1.21278 0.429039 2.60271 141 138 121
1.18879 0.427178 2.59967 143 142 125
1.16538 0.425468 2.59746 144 144 125
1.14699 0.425559 2.60623 145 145 126
1.13856 0.429409 2.63808 155 157 133
1.12471 0.431305 2.65803 164 163 146
1.10607 0.431398 2.66691 160 165 152
1.08289 0.429686 2.6646 155 165 153
1.05502 0.426018 2.65005 151 164 151
1.03224 0.424304 2.64755 151 164 151
1.01392 0.424395 2.65627 154 167 154
0.99561 0.424487 2.665 145 160 147
0.977295 0.424578 2.67373 168 171 151
0.95898 0.424669 2.68245 176 176 152
0.932992 0.421296 2.66923 172 168 140
0.906978 0.417771 2.65491 176 175 146
0.878068 0.412737 2.63083 176 175 146
0.853369 0.40951 2.61811 175 173 147
0.83234 0.40794 2.61589 167 164 142
0.811454 0.406369 2.61359 155 150 125
0.793951 0.406456 2.62193 172 169 147
0.776448 0.406543 2.63027 178 176 152
0.758945 0.406631 2.63861 181 179 155
0.738416 0.405058 2.63615 178 176 152
0.720984 0.405145 2.64446 182 180 156
0.700669 0.403571 2.64189 181 179 155
0.686121 0.405318 2.66107 181 179 153
0.668689 0.405405 2.66938 175 173 147
0.651257 0.405492 2.67768 141 136 111
0.636424 0.407241 2.697 122 114 78
0.618921 0.407329 2.70534 129 125 97
0.603873 0.409079 2.72475 112 102 80
0.583915 0.407503 2.72202 116 102 78
0.5641 0.405927 2.71921 155 153 129
0.542188 0.402686 2.70516 184 181 159
0.522927 0.401259 2.70321 188 185 163
0.501699 0.398167 2.68994 188 187 165
0.478901 0.393559 2.6663 187 186 164
0.456685 0.389101 2.64348 188 186 162
0.436569 0.386156 2.6308 188 186 162
0.421655 0.387753 2.64904 184 183 154
0.406611 0.389351 2.66734 186 184 160
0.391437 0.39095 2.68571 186 184 160
0.373228 0.389518 2.68325 185 183 157
0.356538 0.389601 2.6912 185 183 159
0.337202 0.386651 2.67815 184 182 158
0.319383 0.385217 2.67551 185 182 160
0.302887 0.3853 2.68337 185 183 159
0.28639 0.385382 2.69123 184 183 154
0.269894 0.385464 2.69909 185 183 157
0.253398 0.385546 2.70695 185 183 157
0.236901 0.385629 2.71481 184 182 156
0.221272 0.387229 2.73339 183 181 155
0.205514 0.388831 2.75203 180 176 148
0.190364 0.391952 2.78152 187 183 155
0.17428 0.393555 2.80031 190 186 158
0.156851 0.392119 2.79749 190 186 158
0.138466 0.387642 2.77285 183 178 153
0.121427 0.386204 2.76984 187 183 155
0.104559 0.384918 2.76786 182 182 158
0.088434 0.386369 2.78556 175 176 161
0.0725042 0.389494 2.81541 176 178 167
0.0563147 0.39262 2.84539 176 178 167
0.0395582 0.392704 2.85338 175 179 168
0.0228022 0.392787 2.86136 176 180 169
0.00606952 0.394394 2.88047 174 178 167
-0.0107931 0.396001 2.89964 174 179 166
-0.0277854 0.397608 2.91886 176 181 166
-0.0449078 0.399217 2.93816 176 180 169
-0.0616872 0.397777 2.93502 178 182 171
-0.0780357 0.394813 2.92054 180 182 171
-0.0941244 0.391847 2.90595 178 180 169
-0.110384 0.390406 2.90256 178 183 170
-0.126514 0.388963 2.89911 180 184 173
-0.143636 0.390572 2.91841 173 177 166
-0.161515 0.393706 2.94919 178 182 171
-0.179654 0.396842 2.9801 178 183 170
-0.198051 0.39998 3.01113 182 186 168
-0.214246 0.398538 3.00771 186 188 170
-0.228539 0.39404 2.98113 182 184 166
-0.241493 0.388014 2.94277 180 180 169
-0.256059 0.385193 2.92856 182 179 169
-0.27146 0.383899 2.92588 180 180 169
-0.285597 0.381076 2.91146 183 184 171
-0.300699 0.379781 2.90864 182 183 170
-0.31326 0.375579 2.88345 183 185 167
-0.328005 0.374282 2.88046 180 183 170
-0.341367 0.371608 2.86679 178 181 168
-0.35582 0.370309 2.86365 177 179 168
-0.370308 0.369163 2.86165 182 183 168
-0.388693 0.371844 2.88934 178 181 168
-0.405968 0.3733 2.90759 183 186 171
-0.424916 0.376136 2.93666 180 183 170
-0.440867 0.376215 2.94426 182 183 175
-0.456817 0.376295 2.95186 182 183 175
-0.471036 0.374995 2.94861 182 183 175
-0.483346 0.372315 2.93444 182 183 175
-0.497272 0.371014 2.93106 182 184 173
-0.511293 0.369866 2.92883 182 184 173
-0.524992 0.368564 2.92534 182 184 173
-0.538574 0.367261 2.92179 182 184 173
-0.552271 0.366111 2.91941 182 184 173
-0.565625 0.364807 2.91576 182 184 173
-0.579107 0.363656 2.91328 182 184 173
-0.588219 0.359894 2.88979 181 183 172
-0.597007 0.35613 2.86614 181 183 172
-0.612068 0.356205 2.87332 181 183 172
-0.631456 0.358739 2.90037 181 183 172
-0.651328 0.361427 2.92876 181 183 172
-0.671422 0.364116 2.95726 181 183 172
-0.689127 0.365422 2.97461 181 183 172
-0.704564 0.365499 2.98196 183 185 174
-0.717579 0.364346 2.97926 183 185 174
-0.72523 0.360577 2.95507 183 185 174
-0.73761 0.359268 2.95095 183 185 174
-0.750196 0.358112 2.94804 183 185 174
-0.765308 0.358188 2.95524 183 185 174
-0.780422 0.358263 2.96244 183 185 174
-0.795535 0.358339 2.96965 180 182 171
-0.813434 0.359646 2.98708 180 182 171
-0.825761 0.358489 2.98405 180 182 171
-0.835092 0.356099 2.97068 180 182 171
-0.841273 0.352475 2.94691 180 182 171
-0.853131 0.351316 2.94365 180 182 171
-0.874026 0.353857 2.97142 180 182 171
-0.901326 0.358866 3.02006 180 182 171
-0.929435 0.364031 3.07019 183 186 173
-0.944762 0.364108 3.07749 183 186 173
-0.953581 0.361715 3.06388 183 186 173
-0.961777 0.359167 3.04886 183 186 173
-0.966816 0.355538 3.02454 183 186 173
-0.978362 0.354377 3.02114 183 186 173
-0.986342 0.35198 3.00713 183 186 173
-1.00114 0.352054 3.01418 178 181 168
-1.01594 0.352127 3.02123 178 181 168
-1.03075 0.352201 3.02829 178 181 168
-1.05289 0.354748 3.05665 178 181 168
-1.07896 0.358533 3.09579 178 181 168
-1.10157 0.361082 3.12438 178 181 168
2.10257 0.273615 1.17743 26 65 96
2.10799 0.276055 1.19376 25 64 93
2.1079 0.277796 1.20716 28 63 90
2.11397 0.280378 1.2243 34 65 91
2.11981 0.28296 1.24155 33 65 88
2.11917 0.284705 1.25522 29 61 84
2.12561 0.287429 1.27329 30 64 89
2.12564 0.289316 1.28775 27 70 94
2.14594 0.294003 1.31481 33 73 99
2.16581 0.298692 1.34207 40 72 95
2.17314 0.301702 1.36195 60 80 85
2.18722 0.305695 1.3864 77 88 87
2.19496 0.308848 1.4072 79 92 90
2.21725 0.314106 1.43776 61 81 86
2.2253 0.317403 1.45952 57 75 80
2.24087 0.321823 1.48661 66 77 75
2.24148 0.324141 1.50413 69 82 80
2.24189 0.326461 1.52174 63 69 69
2.24304 0.328922 1.54011 58 74 71
2.23542 0.330121 1.55265 63 79 76
2.2362 0.332583 1.5712 60 73 71
2.23675 0.335047 1.58986 60 72 67
2.23708 0.337512 1.60863 51 63 58
2.22979 0.338854 1.62212 47 54 50
2.22973 0.341321 1.64107 41 62 69
2.22216 0.342665 1.65469 32 67 94
2.22261 0.345274 1.67451 26 63 90
2.22284 0.347885 1.69444 19 60 89
2.23174 0.351903 1.72136 23 58 85
2.24914 0.35733 1.75536 26 62 87
2.2766 0.364448 1.79793 37 67 82
2.31387 0.373258 1.84918 77 85 73
2.33388 0.379398 1.8875 103 108 95
2.34475 0.384132 1.91906 88 97 88
2.34579 0.387318 1.94304 86 96 84
2.36772 0.394029 1.98491 82 91 82
2.37896 0.399051 2.01851 65 71 64
2.3914 0.404357 2.05376 62 68 61
2.39345 0.407975 2.08061 48 49 41
2.38532 0.409901 2.09895 46 48 37
2.36644 0.409995 2.10795 37 59 64
2.36775 0.413616 2.13515 29 62 83
2.35912 0.415546 2.15373 51 74 90
2.36065 0.419311 2.18194 49 75 90
2.36263 0.423218 2.21105 50 76 84
2.37521 0.429104 2.25069 73 91 96
2.37717 0.433157 2.28092 81 97 100
2.35725 0.433256 2.29041 92 108 111
2.32666 0.431378 2.2894 121 130 128
2.26528 0.423704 2.25744 125 138 136
2.22558 0.419984 2.2463 132 145 143
2.19663 0.418242 2.24563 137 149 144
2.1973 0.422156 2.27536 141 154 146
2.19761 0.426072 2.30526 138 151 143
2.19757 0.42999 2.33533 136 151 143
2.21868 0.438155 2.38872 138 150 145
2.20852 0.440237 2.40914 138 148 143
2.18832 0.440338 2.41877 138 149 147
2.16812 0.440439 2.42839 137 149 144
2.13825 0.438556 2.42704 142 155 147
2.09831 0.434548 2.4138 143 156 148
2.05941 0.430679 2.40117 143 154 146
2.03028 0.428793 2.39947 143 154 146
2.00199 0.427047 2.39848 140 152 142
1.97322 0.42516 2.39661 142 156 146
1.95375 0.425257 2.40588 142 155 147
1.93427 0.425354 2.41516 147 149 143
1.9148 0.425451 2.42444 152 150 138
1.88711 0.423702 2.42317 152 150 136
1.85897 0.421812 2.42099 155 151 139
1.83967 0.421908 2.43019 155 150 140
1.81241 0.420157 2.42871 151 147 135
1.7932 0.420253 2.43786 142 139 129
1.77399 0.420349 2.44702 143 139 132
1.75478 0.420445 2.45617 137 135 123
1.73557 0.420541 2.46533 139 134 124
1.71636 0.420636 2.47448 132 128 121
1.69714 0.420732 2.48363 139 136 126
1.67056 0.418978 2.48183 152 147 137
1.64414 0.417224 2.47995 162 155 145
1.6251 0.417319 2.48903 160 156 144
1.61318 0.419264 2.50918 161 157 145
1.60109 0.421211 2.52941 161 157 145
1.59632 0.425152 2.56173 159 156 139
1.5838 0.427101 2.58217 162 157 134
1.57163 0.429193 2.60355 163 160 143
1.53816 0.425442 2.58944 161 157 143
1.49842 0.419837 2.56386 150 152 128
1.46623 0.416225 2.55026 158 160 136
1.43488 0.412753 2.53737 164 159 142
1.41608 0.412847 2.54633 168 163 146
1.39729 0.412941 2.55528 163 160 143
1.38469 0.41489 2.57576 158 156 137
1.3597 0.413128 2.5732 159 158 141
1.3409 0.413222 2.58215 158 156 142
1.32211 0.413316 2.59111 163 159 145
1.30331 0.413409 2.60006 159 156 139
1.27875 0.411646 2.5973 152 151 129
1.25479 0.410024 2.59536 140 141 112
1.23098 0.408401 2.59335 145 145 121
1.21243 0.408494 2.60219 146 146 122
1.18844 0.406727 2.59915 144 144 125
1.16503 0.405103 2.59695 146 144 125
1.1515 0.406911 2.61675 159 156 134
1.13821 0.408864 2.63755 160 162 136
1.12906 0.412392 2.66863 163 165 141
1.11035 0.412485 2.67754 162 167 152
1.08709 0.41086 2.67527 158 167 153
1.06399 0.409234 2.67292 154 164 152
1.04543 0.409326 2.68176 152 165 152
1.0222 0.407556 2.67836 152 165 152
0.999498 0.405928 2.67582 148 161 148
0.976948 0.404299 2.67321 166 170 147
0.958633 0.404391 2.68194 181 179 153
0.932649 0.401183 2.66872 172 170 144
0.906637 0.39783 2.6544 182 180 156
0.881257 0.39462 2.6409 181 179 155
0.85649 0.391551 2.62821 179 174 151
0.832008 0.388481 2.61539 165 159 131
0.814433 0.388569 2.62377 164 159 134
0.796859 0.388656 2.63214 175 173 149
0.779284 0.388744 2.64052 183 181 157
0.76171 0.388831 2.64889 182 180 156
0.744136 0.388919 2.65726 179 177 153
0.720654 0.385844 2.64397 183 178 155
0.700341 0.384349 2.6414 182 180 156
0.68017 0.382854 2.63877 183 178 153
0.66562 0.384522 2.65795 179 177 151
0.650928 0.386192 2.67719 144 137 112
0.636093 0.387862 2.6965 116 107 68
0.61859 0.387949 2.70484 130 124 90
0.601087 0.388036 2.71318 138 134 106
0.576438 0.383371 2.6882 137 132 107
0.554738 0.380432 2.67517 165 158 135
0.533311 0.377492 2.662 192 188 169
0.514325 0.376136 2.65992 191 188 166
0.495468 0.374779 2.65777 192 189 167
0.476741 0.373421 2.65557 190 187 165
0.456369 0.370621 2.64301 185 184 155
0.437967 0.369261 2.64065 185 183 157
0.421341 0.369344 2.64858 188 186 162
0.406295 0.37087 2.66688 182 180 154
0.39112 0.372397 2.68524 181 179 153
0.374364 0.372481 2.69322 177 175 149
0.357608 0.372564 2.70121 169 165 137
0.339531 0.371203 2.69869 167 160 135
0.322839 0.371286 2.70664 168 161 136
0.306148 0.37137 2.71459 166 160 132
0.288331 0.370008 2.71196 161 154 129
0.271705 0.37009 2.71988 176 169 146
0.254082 0.368727 2.71714 179 174 149
0.237521 0.36881 2.72504 179 176 146
0.220959 0.368892 2.73293 179 175 142
0.204398 0.368975 2.74082 183 175 146
0.188573 0.370505 2.75949 186 181 151
0.171947 0.370588 2.76741 191 186 161
0.155321 0.370671 2.77533 188 184 156
0.137611 0.367857 2.76151 184 177 145
0.120686 0.366636 2.75956 190 181 154
0.104619 0.368021 2.77723 185 180 157
0.0888162 0.371002 2.80702 173 174 161
0.0727537 0.373984 2.83694 176 178 167
0.0564316 0.376967 2.86698 177 179 168
0.0396982 0.378502 2.88608 176 181 168
0.022747 0.378586 2.89416 173 180 171
0.00579593 0.378671 2.90223 179 183 172
-0.0111553 0.378755 2.91031 178 180 169
-0.0283322 0.381888 2.94187 178 180 169
-0.0454194 0.381973 2.95001 177 180 167
-0.0620077 0.379009 2.93454 177 180 167
-0.0783537 0.376188 2.92007 175 180 167
-0.0937052 0.370461 2.88287 178 181 168
-0.109445 0.367783 2.86922 176 181 168
-0.125385 0.366411 2.86568 180 183 170
-0.142826 0.369255 2.89514 177 178 170
-0.161205 0.3737 2.93729 176 181 166
-0.180665 0.3796 2.99108 180 185 170
-0.199205 0.38274 3.02329 185 186 173
-0.214566 0.379769 3.00724 184 185 170
-0.226196 0.371122 2.946 182 184 173
-0.238187 0.364217 2.89829 180 182 171
-0.251589 0.360221 2.87351 180 182 171
-0.266683 0.35899 2.87068 180 182 171
-0.28166 0.357759 2.8678 182 183 175
-0.297611 0.357839 2.8754 183 183 172
-0.311264 0.355295 2.86187 185 186 171
-0.327097 0.355374 2.86942 186 187 172
-0.3404 0.352829 2.85572 188 186 172
-0.35494 0.35174 2.85375 185 183 169
-0.369222 0.350506 2.85054 184 185 170
-0.384829 0.350583 2.85797 184 186 168
-0.398935 0.349348 2.85468 188 188 169
-0.416042 0.350739 2.87284 184 182 168
-0.433264 0.352131 2.89107 189 185 171
-0.452094 0.354691 2.91896 189 185 171
-0.467869 0.35477 2.92648 189 185 171
-0.48026 0.352365 2.91346 184 183 166
-0.495924 0.352443 2.92093 184 183 166
-0.509681 0.351206 2.91746 184 183 166
-0.52332 0.349968 2.91395 184 183 166
-0.537067 0.348876 2.91159 184 183 166
-0.552564 0.348953 2.91898 184 183 166
-0.565917 0.347714 2.91532 184 183 166
-0.577197 0.345303 2.90178 184 183 166
-0.586247 0.341721 2.87826 181 179 165
-0.597291 0.339455 2.86572 181 179 165
-0.614465 0.340701 2.8828 181 179 165
-0.631743 0.341948 2.89994 181 179 165
-0.653833 0.345685 2.93829 181 179 165
-0.671712 0.34708 2.95683 181 179 165
-0.687099 0.347157 2.96416 181 179 165
-0.699815 0.345915 2.9602 180 181 166
-0.710294 0.343645 2.94739 180 181 166
-0.720255 0.341228 2.93321 180 181 166
-0.732841 0.34013 2.93031 180 181 166
-0.745322 0.339032 2.92735 180 181 166
-0.76033 0.339107 2.9345 180 181 166
-0.775339 0.339181 2.94165 180 181 166
-0.793085 0.340431 2.95901 181 184 171
-0.810934 0.34168 2.97642 181 184 171
-0.828886 0.342931 2.99388 181 184 171
-0.84116 0.341831 2.99083 181 184 171
-0.850385 0.339556 2.97741 181 184 171
-0.859403 0.337279 2.9639 181 184 171
-0.877356 0.338529 2.98136 181 184 171
-0.898512 0.340956 3.00925 179 184 171
-0.916724 0.342208 3.02683 179 184 171
-0.935041 0.34346 3.04446 179 184 171
-0.94695 0.342359 3.04123 179 184 171
-0.955449 0.340079 3.02748 179 184 171
-0.963738 0.337799 3.01362 179 184 171
-0.975232 0.336696 3.01019 179 184 171
-0.986622 0.335592 3.00671 180 184 173
-0.998347 0.334635 3.00451 180 184 173
-1.0131 0.334708 3.01154 180 184 173
-1.02786 0.334782 3.01857 180 184 173
-1.0495 0.337066 3.04558 180 184 173
-1.0718 0.339499 3.07401 180 184 173
-1.09808 0.343112 3.11325 180 184 173
2.10769 0.260198 1.18007 27 62 96
2.11415 0.262648 1.19703 28 62 94
2.12038 0.265099 1.21409 23 59 89
2.12005 0.266756 1.2276 35 63 91
2.12585 0.269209 1.24487 33 63 86
2.11892 0.270071 1.25485 27 59 82
2.11915 0.271863 1.2692 25 62 89
2.11922 0.273655 1.28363 32 69 96
2.13853 0.277972 1.31004 34 70 100
2.16555 0.283353 1.34168 35 71 96
2.17994 0.287143 1.36598 58 80 85
2.19397 0.290934 1.39045 80 93 92
2.20166 0.29393 1.41127 77 93 91
2.21698 0.297991 1.43735 61 80 87
2.23289 0.302186 1.46427 63 81 86
2.24059 0.30532 1.48619 79 80 77
2.2412 0.307523 1.50371 80 93 91
2.2416 0.309728 1.52132 82 95 94
2.23414 0.310868 1.53377 64 80 83
2.22753 0.312142 1.54694 66 85 87
2.22741 0.314349 1.5648 65 84 86
2.22802 0.316691 1.58343 58 76 74
2.2284 0.319033 1.60216 55 68 67
2.22117 0.32031 1.61562 55 66 65
2.21383 0.321588 1.62914 45 64 71
2.21366 0.323933 1.64814 34 67 94
2.21417 0.326413 1.66793 28 63 90
2.22253 0.330095 1.69399 28 62 92
2.23144 0.333911 1.7209 25 57 80
2.23201 0.336529 1.74177 26 60 78
2.27628 0.345823 1.79746 36 63 82
2.31354 0.354188 1.84869 75 88 75
2.3526 0.362957 1.90241 98 109 95
2.35386 0.365984 1.92629 91 100 91
2.35569 0.369147 1.95102 90 100 88
2.36738 0.373916 1.9844 83 93 81
2.37861 0.378686 2.01799 69 77 65
2.39105 0.383727 2.05324 67 70 62
2.39309 0.387164 2.08008 52 54 43
2.38496 0.388997 2.09842 47 50 42
2.37585 0.390698 2.11612 38 60 60
2.36739 0.392532 2.13462 30 65 87
2.35876 0.394368 2.1532 45 69 91
2.34996 0.396205 2.17185 55 78 94
2.35202 0.399918 2.20092 39 66 83
2.36389 0.405375 2.23977 74 91 92
2.3768 0.411103 2.28036 80 96 94
2.37916 0.41509 2.3115 89 103 106
2.35905 0.41519 2.32108 117 126 125
2.29589 0.407645 2.28776 129 140 138
2.27615 0.407743 2.29716 134 145 143
2.25641 0.407842 2.30656 137 149 144
2.24698 0.409819 2.32664 136 148 143
2.23736 0.411798 2.3468 138 152 142
2.23841 0.415792 2.37857 137 150 142
2.22833 0.417773 2.39895 140 151 149
2.21879 0.419889 2.42019 138 149 147
2.18794 0.417974 2.4182 137 150 142
2.15798 0.416193 2.4169 136 149 141
2.12821 0.414411 2.4155 140 153 145
2.09793 0.412493 2.41324 142 156 146
2.05904 0.408825 2.40061 143 155 145
2.0393 0.408924 2.41002 145 157 147
2.01956 0.409022 2.41942 144 156 146
1.99061 0.407236 2.41764 143 155 145
1.9625 0.405583 2.41657 146 154 147
1.94294 0.405681 2.42589 146 152 145
1.92337 0.405778 2.43521 153 149 142
1.90381 0.405876 2.44453 154 150 138
1.86736 0.402334 2.43186 160 156 144
1.84797 0.402431 2.4411 160 155 145
1.82859 0.402528 2.45033 163 163 152
1.8092 0.402624 2.45957 162 163 148
1.78142 0.400832 2.45723 163 164 149
1.76213 0.400928 2.46643 163 165 147
1.7352 0.39927 2.46479 165 167 149
1.71599 0.399365 2.47394 166 169 149
1.68932 0.397706 2.47218 168 172 149
1.66282 0.396045 2.47034 168 174 151
1.65107 0.397896 2.49041 167 173 150
1.63194 0.397992 2.49952 162 166 148
1.61994 0.399844 2.51971 158 156 142
1.60776 0.401698 2.53998 162 158 144
1.6029 0.405445 2.57234 161 157 143
1.59082 0.407436 2.59367 161 157 138
1.56396 0.40564 2.5909 161 157 138
1.53779 0.403977 2.5889 158 156 137
1.49806 0.398659 2.56332 160 158 134
1.46587 0.395234 2.54972 165 160 143
1.44097 0.393703 2.54824 165 160 143
1.41573 0.392037 2.5458 164 158 144
1.39066 0.390369 2.54328 162 158 144
1.36623 0.388836 2.54156 160 157 140
1.35324 0.390555 2.56111 162 159 142
1.34055 0.392411 2.58162 162 159 142
1.32175 0.392505 2.59058 159 156 139
1.30296 0.392599 2.59954 154 150 131
1.27307 0.3893 2.58596 148 144 125
1.25443 0.389393 2.59484 139 139 115
1.2358 0.389486 2.60372 144 145 116
1.21208 0.387949 2.60167 149 151 127
1.19352 0.388042 2.61051 161 161 137
1.16962 0.386368 2.60743 159 160 138
1.15641 0.388227 2.62819 166 164 145
1.14264 0.38995 2.64811 162 162 138
1.1338 0.393442 2.68014 162 166 143
1.115 0.393536 2.6891 160 165 150
1.09621 0.393629 2.69805 159 168 154
1.07741 0.393723 2.70701 157 167 155
1.05862 0.393817 2.71596 157 167 155
1.03515 0.392141 2.71268 157 167 155
1.00797 0.388967 2.69892 156 167 153
0.976602 0.384021 2.6727 164 169 149
0.958287 0.384112 2.68143 181 179 155
0.932306 0.38107 2.66821 174 171 141
0.910218 0.379525 2.66538 184 180 152
0.880919 0.374845 2.6404 182 181 152
0.852702 0.370434 2.61712 181 179 153
0.831675 0.369022 2.6149 173 168 145
0.810792 0.367609 2.61261 178 173 150
0.793288 0.367697 2.62095 179 177 153
0.775786 0.367784 2.62929 184 182 156
0.758283 0.367871 2.63763 183 181 157
0.74078 0.367958 2.64597 181 179 155
0.717372 0.365041 2.63264 181 180 151
0.697131 0.363625 2.63005 183 181 155
0.679843 0.363711 2.63828 185 183 157
0.665292 0.365301 2.65746 181 179 153
0.655931 0.369898 2.69864 152 146 125
0.640952 0.37149 2.71802 142 136 115
0.620782 0.370074 2.71539 141 136 111
0.595852 0.365647 2.69055 140 133 110
0.569402 0.359987 2.65641 142 137 112
0.545807 0.35583 2.63316 163 159 140
0.522818 0.351807 2.61073 185 185 166
0.508096 0.35326 2.62888 188 189 167
0.493244 0.354713 2.64708 188 187 165
0.478263 0.356166 2.66535 188 185 163
0.461376 0.356251 2.67339 188 186 162
0.444491 0.356335 2.68144 186 184 158
0.42596 0.355048 2.67914 185 183 157
0.407559 0.353761 2.67678 175 173 147
0.392318 0.355216 2.69517 156 153 131
0.376947 0.356671 2.71362 162 161 132
0.361445 0.358128 2.73214 169 163 135
0.344494 0.358212 2.74021 165 160 137
0.328799 0.35967 2.75882 174 167 142
0.311783 0.359754 2.76693 181 174 149
0.294767 0.359839 2.77504 181 175 147
0.276691 0.35855 2.77252 183 177 149
0.257749 0.355887 2.75929 178 173 143
0.239068 0.353222 2.74594 180 173 148
0.221511 0.35193 2.74318 176 166 142
0.204085 0.350638 2.74035 180 169 142
0.187524 0.350721 2.74824 188 181 158
0.170291 0.349428 2.74533 190 185 162
0.153796 0.34951 2.75319 186 181 151
0.137299 0.349592 2.76105 183 175 146
0.120803 0.349674 2.76891 190 181 154
0.104717 0.351133 2.7877 182 180 161
0.0888471 0.353971 2.81752 176 177 164
0.0729984 0.358187 2.85845 175 180 167
0.0563284 0.359649 2.87753 176 181 168
0.0393774 0.359733 2.8856 179 183 172
0.0223403 0.358439 2.88259 178 182 171
0.00541225 0.355766 2.8684 181 184 171
-0.0113881 0.357228 2.88754 178 181 168
-0.0283179 0.358692 2.90673 181 184 169
-0.0452039 0.358776 2.91478 178 180 169
-0.061851 0.35748 2.91158 177 180 167
-0.0780646 0.354803 2.89705 178 181 166
-0.09365 0.350743 2.8711 177 180 165
-0.109322 0.348201 2.85742 176 181 168
-0.125695 0.348283 2.86522 172 177 164
-0.143138 0.35099 2.89468 176 181 166
-0.160892 0.353837 2.92539 181 185 167
-0.180292 0.359449 2.97915 183 187 169
-0.197936 0.360917 2.99868 186 187 172
-0.21324 0.358235 2.98372 185 187 169
-0.225621 0.351401 2.93398 181 184 171
-0.238494 0.346225 2.89783 182 183 170
-0.252911 0.343815 2.88467 176 179 166
-0.266986 0.341265 2.87023 181 184 171
-0.280929 0.338852 2.85685 173 175 169
-0.295729 0.337685 2.85388 178 183 170
-0.311563 0.337763 2.86143 175 177 166
-0.326188 0.336595 2.85838 169 172 164
-0.340697 0.335426 2.85528 172 176 165
-0.355236 0.334396 2.85331 161 169 157
-0.369517 0.333226 2.8501 171 180 166
-0.383681 0.332055 2.84683 165 173 161
-0.396394 0.329774 2.83397 146 157 155
-0.410446 0.328741 2.83177 141 153 155
-0.42727 0.329928 2.84868 136 147 160
-0.445873 0.332365 2.87647 136 147 160
-0.464891 0.334942 2.90556 136 147 160
-0.480556 0.33502 2.91302 154 161 165
-0.497867 0.33621 2.93017 154 161 165
-0.511886 0.335177 2.92795 154 161 165
-0.525583 0.334004 2.92446 154 161 165
-0.537361 0.331718 2.91116 154 161 165
-0.552856 0.331795 2.91854 154 161 165
-0.566209 0.330621 2.91489 154 161 165
-0.579689 0.329585 2.91241 170 174 173
-0.590805 0.327296 2.89879 170 174 173
-0.601699 0.325006 2.88506 170 174 173
-0.619242 0.326334 2.90344 170 174 173
-0.636631 0.327524 2.92062 170 174 173
-0.656618 0.329968 2.94907 170 174 173
-0.672004 0.330045 2.9564 170 174 173
-0.687389 0.330122 2.96373 176 178 172
-0.700105 0.328944 2.95977 176 178 172
-0.713007 0.327905 2.95702 176 178 172
-0.728283 0.327981 2.9643 176 178 172
-0.741029 0.326942 2.96147 176 178 172
-0.756252 0.327017 2.96872 176 178 172
-0.771475 0.327093 2.97598 176 178 172
-0.786699 0.327169 2.98323 176 178 172
-0.804659 0.328362 3.00069 185 185 174
-0.825861 0.330812 3.02971 185 185 174
-0.847284 0.333263 3.05884 185 185 174
-0.865673 0.334458 3.0765 185 185 174
-0.872018 0.331042 3.05171 185 185 174
-0.87804 0.327625 3.02675 185 185 174
-0.889833 0.326442 3.02236 185 185 174
-0.901897 0.325399 3.01921 184 184 173
-0.91701 0.325474 3.02641 184 184 173
-0.932123 0.32555 3.03361 184 184 173
-0.947236 0.325625 3.04081 184 184 173
-0.959041 0.324581 3.03753 184 184 173
-0.967381 0.322416 3.0237 184 184 173
-0.975513 0.32025 3.00977 184 184 173
-0.986902 0.319204 3.0063 191 188 178
-1.00522 0.320398 3.02393 191 188 178
-1.02007 0.320472 3.03101 191 188 178
-1.03493 0.320546 3.03808 191 188 178
-1.05345 0.321742 3.05581 191 188 178
-1.0758 0.32406 3.08427 191 188 178
-1.10214 0.327501 3.12352 191 188 178
2.11389 0.246834 1.18332 26 67 91
2.12031 0.249155 1.20029 26 65 87
2.1265 0.251477 1.21737 26 63 85
2.13245 0.2538 1.23456 31 61 89
2.13188 0.255372 1.24818 33 62 93
2.12595 0.256316 1.25879 30 59 90
2.1189 0.257136 1.26883 29 63 95
2.11177 0.257956 1.2789 29 68 99
2.12499 0.261288 1.30153 30 69 100
2.15919 0.267261 1.33752 38 71 98
2.17967 0.271603 1.36558 62 81 90
2.1937 0.275193 1.39005 79 92 91
2.20935 0.279037 1.41597 79 91 93
2.23154 0.283762 1.44656 60 83 85
2.24735 0.287736 1.47352 66 87 84
2.25592 0.29083 1.49613 74 77 69
2.24867 0.291912 1.50849 61 64 51
2.24132 0.292994 1.52089 63 69 62
2.23386 0.294077 1.53335 66 76 71
2.22724 0.295286 1.54651 64 75 67
2.21957 0.29637 1.55907 65 84 78
2.22023 0.298589 1.57767 60 75 76
2.22066 0.300809 1.59638 60 74 77
2.21256 0.301895 1.60914 56 69 67
2.20527 0.303108 1.62262 44 68 74
2.20516 0.305331 1.64159 36 73 90
2.20573 0.307681 1.66135 26 62 92
2.21414 0.311168 1.68737 23 59 84
2.2231 0.314783 1.71425 25 56 82
2.2317 0.3184 1.74131 28 58 81
2.25838 0.324672 1.78311 30 62 85
2.30362 0.333727 1.84054 75 78 70
2.35227 0.343419 1.90192 95 104 88
2.36298 0.347679 1.93353 91 102 88
2.36473 0.350677 1.95828 92 101 92
2.37634 0.355194 1.99169 86 95 86
2.38834 0.35984 2.02602 79 89 84
2.4007 0.364614 2.0613 77 83 76
2.39274 0.366353 2.07955 56 55 47
2.3846 0.368093 2.09789 56 53 43
2.36572 0.368187 2.10689 46 60 63
2.35653 0.369802 2.12462 33 70 92
2.34798 0.371544 2.14316 34 69 91
2.34959 0.374934 2.17131 40 73 94
2.35165 0.378453 2.20037 39 64 83
2.36352 0.383622 2.23922 69 87 92
2.38804 0.390951 2.29095 77 95 100
2.38954 0.394603 2.32139 86 104 102
2.36934 0.394704 2.33101 114 125 124
2.34914 0.394805 2.34064 127 138 136
2.34018 0.39681 2.3616 134 147 139
2.33102 0.398816 2.38265 139 150 142
2.32166 0.400824 2.4038 137 150 142
2.30117 0.400926 2.41356 141 149 142
2.25899 0.397215 2.40028 142 153 145
2.22795 0.395409 2.39838 138 151 143
2.20775 0.395509 2.40801 140 153 145
2.16786 0.392048 2.39587 140 152 142
2.13739 0.39024 2.3937 142 154 144
2.11747 0.390339 2.40319 142 154 144
2.09755 0.390438 2.41268 144 154 149
2.06815 0.388755 2.41111 146 154 147
2.04832 0.388854 2.42056 147 156 147
2.02849 0.388953 2.43001 147 157 145
2.00867 0.389051 2.43946 148 155 146
1.97972 0.387366 2.43768 146 155 146
1.95998 0.387464 2.44708 145 155 143
1.94024 0.387562 2.45649 151 149 137
1.91166 0.385875 2.45453 155 149 137
1.87512 0.382528 2.4419 163 159 147
1.85565 0.382625 2.45118 171 170 153
1.83618 0.382722 2.46046 165 168 148
1.81671 0.382819 2.46974 169 172 152
1.79724 0.382916 2.47901 168 171 151
1.77006 0.381352 2.4775 171 174 154
1.74246 0.37966 2.47508 169 172 152
1.71563 0.378095 2.4734 166 171 151
1.68896 0.376528 2.47164 166 171 151
1.66984 0.376624 2.48076 166 171 151
1.65799 0.378382 2.50086 167 173 150
1.64599 0.380141 2.52105 166 168 150
1.63436 0.382029 2.54217 163 161 149
1.622 0.38379 2.56252 163 159 147
1.60253 0.383887 2.57179 160 158 146
1.58306 0.383984 2.58107 163 157 145
1.54951 0.380622 2.56702 164 156 140
1.51682 0.377386 2.55367 161 157 138
1.49108 0.375816 2.55147 163 158 141
1.45949 0.372705 2.53871 163 157 143
1.43417 0.371132 2.53631 164 159 142
1.40902 0.369558 2.53384 164 160 141
1.37872 0.366572 2.52157 168 164 145
1.34826 0.363456 2.50827 159 155 136
1.32987 0.363548 2.51703 159 155 136
1.31704 0.36518 2.5365 154 150 131
1.3045 0.366942 2.55694 146 141 124
1.28595 0.367035 2.56578 147 138 120
1.27271 0.368669 2.58543 143 138 121
1.25408 0.368762 2.59431 146 143 126
1.23545 0.368855 2.60319 153 153 129
1.21173 0.367405 2.60114 166 167 138
1.19317 0.367497 2.60999 170 169 147
1.17462 0.36759 2.61883 163 161 142
1.15606 0.367682 2.62767 168 166 147
1.14706 0.370864 2.65866 165 165 139
1.13344 0.372631 2.67961 166 166 142
1.11465 0.372725 2.68857 162 166 148
1.09585 0.372819 2.69752 161 170 156
1.08189 0.374588 2.71864 157 165 153
1.05826 0.373006 2.71544 157 165 153
1.0348 0.371424 2.71215 159 169 157
1.00762 0.368422 2.6984 155 165 153
0.976255 0.363742 2.67218 166 169 149
0.953864 0.362285 2.6695 179 177 153
0.931962 0.360957 2.6677 173 171 138
0.913796 0.361047 2.67636 180 176 148
0.887946 0.358039 2.66197 178 173 148
0.85927 0.353738 2.63781 174 169 144
0.827963 0.348143 2.60378 180 176 148
0.807153 0.346808 2.60146 178 172 144
0.789721 0.346895 2.60976 167 161 133
0.77229 0.346982 2.61807 154 147 124
0.754858 0.347069 2.62637 158 151 126
0.734404 0.345733 2.62388 151 144 126
0.714093 0.344397 2.62132 180 173 150
0.696805 0.344483 2.62956 184 179 154
0.682324 0.345993 2.6487 185 180 155
0.673173 0.350352 2.68977 184 180 152
0.663594 0.354713 2.73105 185 180 155
0.648399 0.356227 2.75053 184 179 154
0.622972 0.35204 2.72593 186 181 156
0.595523 0.346426 2.69006 185 180 155
0.566699 0.339642 2.64483 187 182 157
0.541291 0.33454 2.61243 187 182 157
0.520469 0.332029 2.60011 186 184 158
0.507779 0.334707 2.6284 186 185 156
0.494829 0.337386 2.65683 191 187 159
0.483642 0.341494 2.69664 189 187 161
0.466554 0.341579 2.70479 189 187 161
0.449467 0.341664 2.71293 186 184 158
0.428929 0.339021 2.69935 191 186 161
0.411978 0.339106 2.70743 188 186 162
0.393513 0.337891 2.7051 166 161 136
0.378075 0.339275 2.72358 176 170 149
0.362508 0.34066 2.74213 177 172 149
0.345492 0.340744 2.75024 179 173 145
0.328477 0.340829 2.75834 182 176 148
0.312768 0.342345 2.77807 186 181 156
0.295681 0.342431 2.78621 188 183 158
0.278594 0.342516 2.79435 190 185 160
0.259419 0.339866 2.78012 190 185 160
0.241539 0.338648 2.77752 187 183 155
0.222925 0.336127 2.76414 188 183 153
0.20537 0.334907 2.76138 189 183 155
0.18721 0.332384 2.74778 189 184 154
0.170649 0.332466 2.75567 189 182 150
0.154087 0.332549 2.76356 182 173 141
0.137526 0.332631 2.77145 188 184 151
0.12144 0.334019 2.79024 192 186 158
0.105222 0.335407 2.8091 182 179 157
0.0895651 0.339406 2.84993 177 180 165
0.0726791 0.33949 2.85798 182 185 172
0.055793 0.339575 2.86603 180 183 170
0.0386079 0.337046 2.85196 181 184 171
0.0216823 0.334516 2.83778 176 180 169
0.00503614 0.333292 2.83459 179 184 169
-0.0115252 0.333375 2.84248 178 183 168
-0.0280864 0.333457 2.85037 176 181 168
-0.0446478 0.33354 2.85826 175 180 167
-0.0612087 0.333622 2.86615 178 181 166
-0.0774655 0.332396 2.86277 176 179 164
-0.0936291 0.3313 2.86046 172 185 172
-0.110066 0.331382 2.86829 164 175 167
-0.126504 0.331464 2.87613 160 172 167
-0.143451 0.332725 2.89421 173 181 174
-0.161206 0.335428 2.92493 154 168 163
-0.179222 0.338132 2.95576 139 156 157
-0.195978 0.338215 2.96375 118 140 140
-0.211085 0.335677 2.94869 110 130 142
-0.225132 0.331956 2.92312 110 134 147
-0.239756 0.329545 2.90895 114 137 148
-0.255051 0.328314 2.90512 109 136 153
-0.268264 0.32472 2.88026 106 132 140
-0.282264 0.322437 2.86691 113 134 150
-0.298214 0.322517 2.87451 113 135 148
-0.313014 0.321414 2.87155 129 143 153
-0.328906 0.321493 2.87912 149 169 169
-0.344799 0.321573 2.88669 169 180 172
-0.359364 0.320469 2.88362 164 176 178
-0.372428 0.318181 2.86982 170 185 177
-0.385418 0.316024 2.85709 185 196 188
-0.396686 0.312681 2.83354 181 192 184
-0.409176 0.310521 2.82058 185 194 185
-0.424504 0.310598 2.82788 183 194 180
-0.441508 0.311859 2.84599 183 194 180
-0.461716 0.315228 2.88344 179 192 179
-0.480852 0.317676 2.91258 179 192 179
-0.498164 0.318808 2.92973 179 192 179
-0.512182 0.317832 2.92751 179 192 179
-0.525878 0.316724 2.92402 179 192 179
-0.541484 0.316802 2.93146 179 192 179
-0.557091 0.31688 2.9389 179 192 179
-0.574843 0.318144 2.95737 179 192 179
-0.588304 0.317035 2.95377 170 189 178
-0.60391 0.317113 2.96121 170 189 178
-0.617197 0.316003 2.95752 170 189 178
-0.632745 0.31608 2.96493 170 189 178
-0.648293 0.316158 2.97234 170 189 178
-0.663841 0.316235 2.97975 170 189 178
-0.677119 0.315256 2.97718 170 189 178
-0.692615 0.315333 2.98456 163 185 178
-0.708111 0.31541 2.99195 163 185 178
-0.723607 0.315488 2.99933 163 185 178
-0.739104 0.315565 3.00671 163 185 178
-0.7546 0.315642 3.0141 163 185 178
-0.770096 0.315719 3.02148 163 185 178
-0.782628 0.314605 3.01744 163 185 178
-0.795381 0.313623 3.01462 148 172 172
-0.810766 0.3137 3.02195 148 172 172
-0.832081 0.316028 3.05102 148 172 172
-0.853616 0.318358 3.08019 148 172 172
-0.872478 0.319628 3.09919 148 172 172
-0.878569 0.31626 3.07317 148 172 172
-0.884323 0.31289 3.04699 148 172 172
-0.89012 0.309651 3.02193 136 161 165
-0.902184 0.308666 3.01878 136 161 165
-0.914143 0.30768 3.01558 136 161 165
-0.925998 0.306693 3.01233 136 161 165
-0.941007 0.306768 3.01948 136 161 165
-0.952707 0.305781 3.01616 136 161 165
-0.964302 0.304793 3.01278 136 161 165
-0.975794 0.303804 3.00936 136 161 165
-0.990647 0.303878 3.01643 125 151 159
-1.00902 0.305016 3.03409 125 151 159
-1.03106 0.307217 3.06239 125 151 159
-1.04969 0.308355 3.08017 125 151 159
-1.06843 0.309495 3.098 125 151 159
-1.08354 0.30957 3.1052 125 151 159
-1.09865 0.309645 3.1124 125 151 159
2.12009 0.233384 1.18657 28 67 89
2.12007 0.234867 1.19992 29 64 91
2.11989 0.23635 1.21336 29 61 91
2.12588 0.238543 1.23053 32 67 94
2.13163 0.240738 1.2478 32 69 91
2.1257 0.241632 1.25842 23 55 85
2.11865 0.242409 1.26845 24 60 90
2.11152 0.243185 1.27852 32 67 94
2.12474 0.246331 1.30115 35 71 101
2.15183 0.251137 1.33273 32 68 93
2.17941 0.256064 1.36519 56 80 88
2.19343 0.259452 1.38965 72 93 90
2.21605 0.26391 1.42003 78 94 92
2.24709 0.269437 1.45641 63 80 87
2.26279 0.273188 1.48341 79 89 91
2.26345 0.275161 1.50089 84 87 72
2.25614 0.276185 1.51327 74 65 47
2.24103 0.276261 1.52047 75 77 59
2.22592 0.276336 1.52767 71 71 60
2.22696 0.278431 1.54609 64 55 44
2.21928 0.279457 1.55864 57 48 37
2.22743 0.282505 1.58256 55 46 35
2.22782 0.284603 1.60129 51 47 33
2.21227 0.28468 1.6087 45 47 36
2.20498 0.285828 1.62218 40 59 61
2.20486 0.287929 1.64115 35 70 92
2.20543 0.290149 1.6609 22 61 90
2.21384 0.293442 1.68692 30 65 92
2.21477 0.295785 1.70761 29 61 84
2.22342 0.2992 1.73464 29 61 84
2.25807 0.306192 1.78264 28 58 81
2.29458 0.313544 1.83309 74 81 77
2.34241 0.32257 1.89372 98 109 95
2.35319 0.326592 1.92529 93 103 91
2.35501 0.329424 1.95001 91 102 88
2.36669 0.333689 1.98337 88 98 86
2.38799 0.339389 2.0255 75 88 75
2.39035 0.342465 2.05219 77 84 75
2.39238 0.345543 2.07903 59 62 49
2.37358 0.345636 2.08798 54 55 42
2.35479 0.34573 2.09694 49 61 63
2.33599 0.345824 2.10589 37 71 96
2.33722 0.348906 2.13312 28 65 92
2.34923 0.353663 2.17077 40 71 97
2.36153 0.358543 2.20941 39 62 91
2.37409 0.363544 2.24903 67 85 90
2.38766 0.368788 2.29039 73 92 94
2.3784 0.370564 2.31037 83 101 99
2.35829 0.370664 2.31995 110 121 120
2.36009 0.374237 2.35136 129 140 132
2.38472 0.381526 2.40636 135 148 140
2.3863 0.385223 2.43897 139 150 142
2.36542 0.385327 2.44892 138 149 141
2.32266 0.381835 2.43593 136 146 141
2.26945 0.376542 2.41123 140 153 140
2.22757 0.373045 2.39782 138 150 140
2.1875 0.369786 2.38577 140 152 142
2.15693 0.368086 2.38365 139 151 141
2.13701 0.368185 2.39314 142 151 142
2.11709 0.368284 2.40263 140 151 143
2.09718 0.368384 2.41212 144 152 145
2.07726 0.368483 2.42161 147 155 148
2.05734 0.368582 2.4311 146 155 146
2.03742 0.368681 2.44059 147 157 145
2.0175 0.368781 2.45009 144 153 144
1.99758 0.36888 2.45958 142 151 142
1.96863 0.367295 2.4578 143 150 141
1.94881 0.367394 2.46725 151 152 139
1.91129 0.364122 2.45398 152 148 134
1.87476 0.360969 2.44135 160 156 142
1.85529 0.361067 2.45063 171 169 155
1.84439 0.36285 2.4714 161 162 140
1.82483 0.362948 2.48072 165 170 145
1.80526 0.363045 2.49004 166 171 146
1.7774 0.361455 2.48774 168 172 149
1.7421 0.358296 2.47453 171 175 152
1.71527 0.356824 2.47286 170 175 150
1.6886 0.355351 2.47111 170 174 151
1.66947 0.355446 2.48022 170 176 153
1.65763 0.357111 2.50032 170 175 155
1.64562 0.358777 2.52051 170 171 149
1.64111 0.362134 2.55269 164 159 142
1.62164 0.362231 2.56197 164 158 146
1.60216 0.362328 2.57125 164 158 146
1.56844 0.359161 2.55728 166 157 146
1.53559 0.356114 2.54402 165 156 143
1.50307 0.353064 2.53059 162 157 140
1.47801 0.351707 2.52918 165 160 143
1.45261 0.350228 2.52683 163 158 141
1.42737 0.348748 2.5244 163 159 140
1.40279 0.347388 2.52276 164 160 141
1.3721 0.344453 2.50958 165 161 142
1.34221 0.341638 2.49713 165 161 142
1.31826 0.340275 2.49519 164 160 141
1.30002 0.340366 2.50388 165 161 142
1.29274 0.343367 2.53405 165 161 142
1.27975 0.344914 2.55358 166 164 145
1.26704 0.346583 2.5741 165 161 142
1.25373 0.348131 2.59379 168 164 145
1.24026 0.349681 2.61355 165 162 140
1.21646 0.348317 2.61155 161 163 132
1.19783 0.34841 2.62042 166 167 138
1.1792 0.348503 2.6293 167 167 143
1.16542 0.350054 2.64922 168 168 144
1.14671 0.350147 2.65813 165 165 141
1.13309 0.351821 2.67908 163 163 137
1.10928 0.350334 2.67596 162 165 150
1.09057 0.350427 2.68488 156 165 149
1.0674 0.34906 2.68258 158 167 153
1.04438 0.347693 2.6802 157 166 152
1.02582 0.347785 2.68904 157 164 155
1.00269 0.346295 2.6856 155 165 153
0.971756 0.342002 2.6603 162 165 145
0.945709 0.339291 2.64713 177 177 151
0.927621 0.339381 2.65575 173 170 140
0.913453 0.340934 2.67585 180 176 148
0.895287 0.341025 2.6845 181 179 153
0.866146 0.336847 2.65946 180 177 147
0.834388 0.331447 2.62454 161 155 127
0.810129 0.32885 2.61162 160 151 124
0.792626 0.328937 2.61997 167 160 135
0.775124 0.329025 2.62831 167 164 134
0.754528 0.327769 2.62588 185 179 151
0.734076 0.326512 2.62339 185 179 151
0.716716 0.326598 2.63167 183 179 151
0.699355 0.326685 2.63994 183 178 153
0.687608 0.329461 2.67001 185 180 155
0.675576 0.332238 2.70021 186 181 156
0.668827 0.337831 2.75348 186 182 154
0.650889 0.33792 2.76203 186 182 154
0.6302 0.336541 2.75854 186 181 156
0.600094 0.329897 2.71171 189 182 159
0.573295 0.324719 2.67665 187 182 157
0.547265 0.319661 2.64234 188 183 158
0.524218 0.316071 2.61995 190 185 160
0.507462 0.316154 2.62793 191 186 161
0.496412 0.319915 2.66657 188 183 158
0.483319 0.322574 2.69616 191 186 161
0.466231 0.322659 2.70431 188 183 158
0.450851 0.323971 2.72276 190 185 160
0.433699 0.324057 2.73093 187 182 157
0.416547 0.324142 2.7391 187 182 159
0.397882 0.323 2.73687 185 183 157
0.379202 0.321734 2.73354 188 183 158
0.360804 0.320591 2.73118 186 182 154
0.343853 0.320675 2.73926 187 183 155
0.329532 0.323341 2.76944 186 184 158
0.312445 0.323426 2.77759 185 182 152
0.296481 0.324741 2.79632 186 183 148
0.279328 0.324826 2.80449 184 178 144
0.260091 0.322328 2.7903 181 168 135
0.243075 0.322413 2.79841 177 164 129
0.225196 0.321267 2.7958 167 154 119
0.208246 0.321351 2.80388 153 140 105
0.189096 0.317741 2.77963 167 154 119
0.17234 0.317825 2.78762 190 182 148
0.15498 0.316676 2.78477 194 186 157
0.138828 0.317992 2.80359 192 184 155
0.122071 0.318075 2.81157 194 188 160
0.105315 0.318159 2.81956 178 175 153
0.0892458 0.32071 2.84946 133 150 144
0.0723594 0.320794 2.85751 122 144 149
0.0552604 0.319644 2.85453 119 141 154
0.0381422 0.317259 2.84044 112 136 149
0.0213676 0.316107 2.83731 113 136 152
0.00472303 0.314955 2.83412 112 136 149
-0.0118846 0.316273 2.85316 111 137 152
-0.0283998 0.31512 2.8499 113 140 157
-0.0449609 0.315203 2.85779 114 142 157
-0.061522 0.315285 2.86569 118 147 154
-0.0777775 0.314131 2.86231 140 163 165
-0.0942739 0.314213 2.87017 155 176 173
-0.110377 0.313182 2.86783 168 184 182
-0.126815 0.313264 2.87566 170 188 185
-0.143763 0.31446 2.89375 182 198 188
-0.160259 0.314542 2.90161 181 193 183
-0.176756 0.314624 2.90947 187 191 180
-0.193252 0.314707 2.91733 190 197 188
-0.209005 0.313674 2.91483 193 198 185
-0.225443 0.313755 2.92266 195 200 187
-0.24188 0.313837 2.93049 190 198 186
-0.257298 0.312679 2.92672 189 197 185
-0.271608 0.310404 2.9124 193 202 188
-0.285787 0.308251 2.89914 198 207 193
-0.30192 0.308331 2.90682 203 207 189
-0.316772 0.30717 2.90278 202 207 187
-0.332839 0.30725 2.91043 206 210 192
-0.347638 0.306212 2.90747 201 205 187
-0.362319 0.305174 2.90446 201 206 186
-0.376884 0.304135 2.90139 199 205 187
-0.388442 0.300857 2.87687 197 203 185
-0.401321 0.298822 2.86409 199 204 189
-0.412416 0.295665 2.84046 197 200 185
-0.426414 0.294747 2.83823 199 203 185
-0.4418 0.294824 2.84556 199 203 185
-0.460466 0.297017 2.87337 201 205 187
-0.477558 0.29809 2.89041 201 205 187
-0.49496 0.299288 2.90871 201 205 187
-0.510567 0.299366 2.91615 201 205 187
-0.526173 0.299444 2.92359 201 205 187
-0.54178 0.299522 2.93102 201 205 187
-0.557386 0.2996 2.93846 201 205 187
-0.575139 0.3008 2.95693 200 202 184
-0.592763 0.301876 2.97422 200 202 184
-0.60848 0.301954 2.98171 200 202 184
-0.624197 0.302033 2.9892 200 202 184
-0.637799 0.301112 2.98679 200 202 184
-0.651026 0.300066 2.98308 200 202 184
-0.666632 0.300144 2.99051 200 202 184
-0.682239 0.300222 2.99795 201 203 185
-0.695232 0.299175 2.99413 201 203 185
-0.71078 0.299253 3.00154 201 203 185
-0.726328 0.29933 3.00895 201 203 185
-0.741876 0.299408 3.01636 201 203 185
-0.757424 0.299485 3.02377 201 203 185
-0.770389 0.298562 3.02105 201 203 185
-0.782921 0.297512 3.01701 201 203 185
-0.792649 0.295461 3.00273 200 201 186
-0.807976 0.295538 3.01004 200 201 186
-0.829234 0.297743 3.03907 200 201 186
-0.850713 0.29995 3.06822 200 201 186
-0.866261 0.300028 3.07563 200 201 186
-0.875548 0.297974 3.06114 200 201 186
-0.884613 0.29592 3.04655 200 201 186
-0.890407 0.292861 3.02151 199 200 185
-0.902469 0.291933 3.01836 199 200 185
-0.911273 0.29 3.00475 199 200 185
-0.926282 0.290075 3.01191 199 200 185
-0.938033 0.289145 3.00861 199 200 185
-0.949679 0.288215 3.00526 199 200 185
-0.964584 0.288289 3.01236 199 200 185
-0.97949 0.288364 3.01946 197 200 185
-0.997861 0.289443 3.03712 197 200 185
-1.01985 0.29153 3.06539 197 200 185
-1.04206 0.293617 3.09377 197 200 185
-1.0613 0.294824 3.11295 197 200 185
-1.07652 0.2949 3.1202 197 200 185
-1.08382 0.292837 3.10477 197 200 185
-1.09138 0.290898 3.09058 195 200 185
2.11985 0.219182 1.18621 34 67 94
2.11982 0.220578 1.19956 27 63 88
2.11328 0.221309 1.20935 27 64 86
2.11931 0.223373 1.2265 32 68 93
2.13138 0.226104 1.24743 32 68 93
2.1317 0.227615 1.26174 29 61 91
2.1246 0.228349 1.27179 28 64 96
2.11846 0.229194 1.28251 25 64 95
2.12448 0.231374 1.30077 29 68 99
2.14446 0.235113 1.32794 31 70 101
2.16502 0.238966 1.35595 55 78 94
2.17913 0.242153 1.38037 73 90 91
2.20084 0.246232 1.41006 74 88 91
2.23099 0.251317 1.44574 66 81 87
2.24679 0.254844 1.47268 68 84 87
2.23974 0.25581 1.48494 91 94 79
2.23259 0.256776 1.49724 90 88 64
2.21763 0.256851 1.50437 89 80 62
2.21798 0.25871 1.522 80 78 59
2.22667 0.261575 1.54566 68 64 50
2.23503 0.264442 1.56947 63 56 38
2.24307 0.26731 1.59344 60 53 35
2.2359 0.268393 1.60687 60 52 36
2.22029 0.26847 1.61431 59 50 37
2.21294 0.269554 1.62782 53 63 58
2.20456 0.270527 1.64071 40 70 93
2.19699 0.271611 1.65433 27 63 93
2.20546 0.27471 1.68032 26 62 92
2.20555 0.276803 1.70029 27 62 84
2.2063 0.27901 1.72106 27 58 84
2.2314 0.284352 1.76137 27 57 80
2.28466 0.293393 1.82495 64 74 69
2.33256 0.301879 1.88553 97 104 95
2.3434 0.305664 1.91706 88 101 88
2.34444 0.308218 1.94103 92 103 87
2.35619 0.312231 1.97436 83 97 82
2.37756 0.317592 2.01644 68 81 73
2.38999 0.321834 2.05166 72 82 70
2.38128 0.323273 2.06916 57 56 48
2.36257 0.323367 2.07808 51 50 42
2.35443 0.32492 2.09641 50 59 57
2.32515 0.323553 2.09591 43 74 95
2.33686 0.327915 2.13259 33 70 97
2.34887 0.332392 2.17023 36 70 100
2.36116 0.336984 2.20886 36 65 91
2.38465 0.343265 2.25883 63 85 90
2.39813 0.3482 2.30023 75 91 94
2.36727 0.346725 2.29936 87 101 104
2.33583 0.345137 2.29766 113 124 122
2.32723 0.346925 2.31844 126 138 133
2.35064 0.353555 2.37179 136 146 141
2.36364 0.358725 2.41563 136 147 139
2.34295 0.358829 2.42549 137 148 140
2.30039 0.355551 2.41241 137 149 139
2.25823 0.352271 2.39914 138 151 138
2.21716 0.349102 2.38646 143 154 146
2.18712 0.347624 2.3852 142 152 147
2.15656 0.346031 2.38309 138 149 141
2.13664 0.34613 2.39258 142 154 144
2.12707 0.347923 2.41382 142 151 142
2.10705 0.348023 2.42336 142 151 142
2.08704 0.348123 2.43289 146 155 146
2.06702 0.348222 2.44243 146 156 144
2.047 0.348322 2.45197 144 154 142
2.01712 0.346726 2.44953 144 154 142
1.98809 0.345242 2.44779 143 151 139
1.96826 0.345341 2.45724 144 148 137
1.9395 0.343856 2.45538 148 149 136
1.9027 0.340898 2.44288 151 147 133
1.87439 0.339411 2.44081 157 153 139
1.85492 0.339508 2.45008 163 161 147
1.83545 0.339605 2.45936 162 165 145
1.82446 0.341289 2.48017 163 166 146
1.80489 0.341386 2.48949 165 170 145
1.78533 0.341484 2.49881 165 170 145
1.74994 0.338519 2.48565 169 174 149
1.72244 0.337027 2.48319 168 172 149
1.68824 0.334173 2.47057 169 173 150
1.66911 0.334269 2.47968 169 175 152
1.6427 0.332888 2.47781 169 175 152
1.63086 0.33446 2.49791 173 172 150
1.62596 0.337509 2.52916 167 163 144
1.60667 0.337605 2.53835 164 158 144
1.58737 0.337701 2.54755 164 158 144
1.55435 0.334841 2.53437 165 159 145
1.52845 0.333458 2.53225 164 158 144
1.50271 0.332074 2.53006 164 158 146
1.47766 0.330803 2.52865 163 157 143
1.45225 0.329417 2.5263 165 157 141
1.42702 0.328031 2.52387 163 159 140
1.40244 0.326757 2.52224 162 160 141
1.37802 0.325483 2.52053 165 165 141
1.35328 0.324094 2.51786 165 161 142
1.32354 0.32145 2.50534 164 160 141
1.30523 0.321542 2.51407 167 163 144
1.29239 0.323002 2.53353 170 163 145
1.28524 0.325946 2.56474 167 163 144
1.27733 0.328777 2.5952 171 164 146
1.25862 0.32887 2.60411 171 164 146
1.2455 0.330448 2.62482 170 162 146
1.22671 0.330542 2.63377 165 164 135
1.20249 0.32915 2.63086 165 165 134
1.18377 0.329243 2.63977 169 167 143
1.16506 0.329337 2.64869 170 169 147
1.14158 0.328058 2.64654 166 166 140
1.12295 0.328151 2.65542 166 166 142
1.09969 0.326871 2.65315 164 166 148
1.07622 0.325475 2.64988 162 167 152
1.05328 0.324194 2.64746 159 168 154
1.03051 0.322911 2.64497 158 166 154
1.01219 0.323003 2.6537 158 166 154
0.989648 0.321719 2.6511 158 166 154
0.959303 0.317799 2.62663 168 171 151
0.933486 0.315252 2.61336 178 176 150
0.915626 0.315341 2.62187 180 176 148
0.909192 0.319445 2.66386 172 168 135
0.894944 0.320912 2.68399 181 177 149
0.873017 0.319625 2.68109 180 174 146
0.844185 0.315697 2.65591 174 168 140
0.819715 0.31326 2.64311 181 174 149
0.798763 0.312085 2.64086 186 179 154
0.781117 0.312173 2.64927 180 175 150
0.76038 0.310997 2.64691 182 175 150
0.742806 0.311084 2.65529 185 178 153
0.725231 0.311172 2.66366 186 180 152
0.710533 0.312525 2.6829 185 179 151
0.692888 0.312613 2.69131 186 180 152
0.68071 0.315233 2.72158 186 181 156
0.665583 0.316588 2.74102 185 181 153
0.650549 0.318059 2.76152 185 181 153
0.627343 0.315499 2.747 185 181 153
0.602211 0.311785 2.72228 184 180 152
0.579883 0.309337 2.70846 186 181 151
0.55344 0.304467 2.67324 192 188 155
0.529993 0.300977 2.64994 185 176 144
0.511077 0.299909 2.64783 177 166 134
0.496091 0.301147 2.66609 181 171 137
0.480976 0.302385 2.68441 167 157 123
0.465908 0.30374 2.70383 150 140 104
0.448821 0.303825 2.71197 164 151 116
0.433374 0.305065 2.73045 186 176 140
0.417955 0.306422 2.75003 187 180 148
0.399069 0.305236 2.74679 184 177 145
0.380471 0.304166 2.74454 191 181 152
0.363384 0.304251 2.75268 188 180 151
0.344849 0.303064 2.74928 187 184 154
0.327833 0.303149 2.75739 187 184 154
0.310817 0.303233 2.7655 187 184 154
0.293801 0.303318 2.7736 188 185 155
0.276785 0.303403 2.78171 190 185 155
0.258778 0.30233 2.77917 188 184 151
0.242753 0.303573 2.79793 186 184 151
0.226685 0.304933 2.81782 187 184 149
0.210394 0.306177 2.8367 189 181 145
0.192511 0.305103 2.8341 192 183 144
0.175423 0.305188 2.84224 188 174 136
0.157072 0.302837 2.82763 184 171 124
0.140121 0.302921 2.83571 154 138 80
0.12317 0.303006 2.84379 164 154 106
0.105812 0.301929 2.84094 174 173 144
0.088926 0.302013 2.84898 183 191 179
0.0717631 0.300935 2.84604 182 190 183
0.0547302 0.299857 2.84304 179 191 181
0.0378264 0.298778 2.83997 182 194 184
0.0210533 0.297698 2.83684 186 198 188
0.00442686 0.297781 2.84477 187 196 187
