ply
format ascii 1.0
comment pointcloud saved from PyCharm
element vertex 1300
property float32 x
property float32 y
property float32 z
property uchar blue
property uchar green
property uchar red
end_header
0.747941 -0.156061 2.66545 198 195 185
0.739223 -0.156116 2.67808 200 197 187
0.732904 -0.156685 2.69954 200 197 187
0.72179 -0.156228 2.70333 200 197 187
0.708727 -0.155331 2.69941 200 197 187
0.695439 -0.15436 2.69405 200 197 187
0.682593 -0.153462 2.68982 200 197 187
0.669853 -0.152563 2.68542 200 197 187
0.659444 -0.152178 2.68996 200 197 187
0.652852 -0.152672 2.71005 201 198 188
0.648379 -0.153681 2.73939 201 198 188
0.641965 -0.15425 2.76098 201 198 188
0.633382 -0.154305 2.77341 201 198 188
0.622718 -0.153845 2.77656 201 198 188
0.610349 -0.152944 2.77163 201 198 188
0.598087 -0.152042 2.76655 201 198 188
0.58964 -0.152096 2.77879 201 198 188
0.579505 -0.151709 2.78292 201 198 188
0.569143 -0.151247 2.78563 201 198 188
0.560749 -0.151301 2.79779 201 198 188
0.550741 -0.150912 2.80175 201 198 188
0.540782 -0.150524 2.80563 201 198 188
0.529047 -0.149618 2.79978 201 198 188
0.519215 -0.149229 2.80348 201 198 188
0.510947 -0.149282 2.81546 201 198 188
2.12306 -0.129561 -0.0304339 128 148 148
2.11597 -0.129607 -0.0201732 128 148 148
2.10889 -0.129652 -0.00991247 128 147 149
2.10787 -0.130072 0.000349442 128 146 151
2.1056 -0.130416 0.0106643 132 150 155
2.11053 -0.131211 0.0210987 129 146 155
2.10817 -0.131556 0.0315437 129 146 155
2.11296 -0.132352 0.0421795 127 144 153
2.11648 -0.133073 0.0529039 125 142 149
2.11992 -0.133794 0.0637348 126 144 149
2.13039 -0.134966 0.0749222 129 144 150
2.13484 -0.135764 0.0860496 125 140 146
2.13921 -0.136562 0.097295 124 138 146
2.14349 -0.13736 0.108659 123 140 149
2.14769 -0.138159 0.120142 126 144 149
2.14018 -0.138207 0.13103 119 137 142
2.13846 -0.138631 0.142304 123 139 142
2.1367 -0.139056 0.153637 123 139 142
2.13491 -0.13948 0.16503 123 137 145
2.13307 -0.139905 0.176482 125 139 147
2.13804 -0.140782 0.188598 117 131 139
2.14863 -0.142035 0.201378 116 133 140
2.15909 -0.14329 0.214348 121 138 145
2.16375 -0.144169 0.226914 123 140 147
2.16833 -0.145048 0.239611 119 136 143
2.16047 -0.145098 0.251002 116 135 144
2.1582 -0.145526 0.263076 113 132 139
2.15701 -0.146029 0.275351 112 131 138
2.1491 -0.14608 0.286808 110 130 142
2.14119 -0.14613 0.298265 112 132 144
2.1399 -0.146634 0.310682 111 129 141
2.13746 -0.147063 0.323004 105 121 133
2.13607 -0.147567 0.335557 103 115 123
2.09757 -0.145501 0.342135 98 112 115
2.06581 -0.143887 0.349485 81 109 131
2.02882 -0.141893 0.355625 69 108 144
2.0093 -0.14111 0.364575 65 105 143
1.99094 -0.140401 0.373596 60 102 144
1.96732 -0.139313 0.381462 60 102 144
1.93849 -0.137846 0.388083 56 100 142
1.90983 -0.136377 0.394468 53 97 139
1.88661 -0.135287 0.401741 49 89 127
1.87511 -0.13503 0.41138 29 64 105
1.86783 -0.135076 0.421919 20 52 94
1.86474 -0.135427 0.43343 20 51 90
1.86786 -0.136232 0.446481 17 49 91
1.8709 -0.137039 0.459651 23 58 101
1.87386 -0.137846 0.472939 21 58 101
1.87673 -0.138654 0.486346 20 59 102
1.88465 -0.139842 0.501234 19 56 99
1.88734 -0.140651 0.514907 31 56 80
1.88487 -0.14108 0.527277 45 64 78
1.87729 -0.141128 0.538254 52 68 80
1.8798 -0.141938 0.552193 50 66 78
1.88323 -0.142825 0.566553 50 67 81
1.91858 -0.14615 0.590902 46 61 80
1.96155 -0.150088 0.618273 44 64 84
1.99517 -0.153342 0.643367 42 64 84
2.01067 -0.155225 0.663095 41 63 83
2.01514 -0.15627 0.679456 44 64 82
2.00677 -0.156324 0.691582 37 57 75
1.9984 -0.156377 0.703708 35 55 73
1.9842 -0.155973 0.713737 29 46 65
1.98166 -0.156485 0.727959 26 44 61
1.98582 -0.157532 0.744783 27 43 60
1.98315 -0.158044 0.75919 29 43 60
1.96897 -0.157639 0.769188 31 43 58
1.95389 -0.157158 0.778737 35 45 60
1.95213 -0.157747 0.793594 32 43 56
1.96162 -0.159256 0.813225 30 39 50
1.96533 -0.160306 0.8307 33 56 85
1.96332 -0.160897 0.845912 35 68 107
1.95474 -0.160952 0.858346 25 60 103
1.95171 -0.161467 0.873268 28 65 108
1.94311 -0.161522 0.885737 19 51 93
1.94093 -0.162114 0.901191 24 52 94
1.9451 -0.163244 0.919756 23 53 95
1.94824 -0.164297 0.938048 18 50 92
1.95853 -0.165966 0.960048 18 48 85
1.97496 -0.168174 0.985448 47 56 65
2.02619 -0.17338 1.02897 72 77 80
2.09564 -0.180205 1.08298 62 66 66
2.16171 -0.186803 1.13664 45 52 56
2.1757 -0.188943 1.16381 58 65 74
2.16566 -0.189008 1.17835 32 39 50
2.17143 -0.190458 1.20164 34 40 54
2.17791 -0.191985 1.22563 23 27 41
2.16773 -0.192051 1.24039 22 26 40
2.14109 -0.190652 1.24558 25 30 41
2.11548 -0.189329 1.25106 27 29 39
2.0823 -0.187311 1.25169 31 34 42
2.05019 -0.185369 1.25252 32 35 43
2.03272 -0.184737 1.262 36 42 56
2.03055 -0.185494 1.28097 38 70 107
2.03502 -0.18687 1.30436 33 65 107
2.04772 -0.189019 1.33341 33 65 107
2.06021 -0.191169 1.36277 41 73 115
2.06584 -0.192702 1.38799 28 60 102
2.06308 -0.193463 1.40782 33 66 105
2.07664 -0.195772 1.43912 33 68 109
2.09814 -0.198856 1.47651 34 69 103
2.12013 -0.202019 1.51495 53 64 56
2.13452 -0.204488 1.54858 69 67 48
2.14061 -0.206183 1.57665 61 57 43
2.16493 -0.209662 1.61873 65 60 55
2.18014 -0.21229 1.65469 64 60 60
2.19587 -0.214998 1.69165 62 58 64
2.20345 -0.216932 1.72285 58 59 67
2.21945 -0.219721 1.76118 47 54 58
2.22736 -0.221735 1.79364 46 54 56
2.2056 -0.2208 1.80232 59 65 64
2.18472 -0.219943 1.81148 57 68 86
2.16394 -0.219085 1.8205 45 75 112
2.15242 -0.219158 1.8372 40 72 114
2.15 -0.220165 1.86178 34 64 106
2.16637 -0.223116 1.9031 37 68 107
2.20196 -0.228092 1.96224 39 66 104
2.23927 -0.233305 2.02417 90 90 91
2.24708 -0.235485 2.06031 117 116 113
2.23471 -0.235565 2.07822 91 89 83
2.2128 -0.234631 2.08712 71 70 62
2.20049 -0.23471 2.10495 71 70 62
2.18818 -0.234788 2.12279 69 69 58
2.18526 -0.235881 2.14986 64 65 57
2.20307 -0.239236 2.19787 64 65 62
2.23196 -0.243842 2.25793 55 82 115
2.27245 -0.249778 2.33107 52 82 119
2.28126 -0.252282 2.37278 55 84 115
2.29052 -0.254866 2.4156 70 90 115
2.32255 -0.26003 2.48343 103 118 124
2.30894 -0.260117 2.50313 117 125 127
2.31879 -0.262862 2.54861 151 150 147
2.27009 -0.258961 2.52955 176 176 170
2.24565 -0.257796 2.53684 184 185 177
2.19967 -0.254126 2.51911 188 189 181
2.17562 -0.252958 2.52582 187 188 180
2.15171 -0.251789 2.53235 185 186 178
2.12859 -0.250698 2.53948 189 190 182
2.11552 -0.250782 2.55843 191 192 184
2.09258 -0.24969 2.56529 189 190 182
2.05019 -0.246244 2.54764 192 191 183
2.0088 -0.242874 2.53027 190 189 181
1.97745 -0.24068 2.52473 189 188 180
1.95595 -0.239661 2.53128 189 188 180
1.94347 -0.239741 2.54936 190 189 181
1.931 -0.23982 2.56743 189 188 180
1.90972 -0.2388 2.57365 189 188 180
1.88856 -0.237779 2.57971 190 189 181
1.85945 -0.235735 2.57443 190 189 181
1.83056 -0.23369 2.56884 190 189 181
1.80251 -0.231722 2.56379 188 189 181
1.78257 -0.230775 2.56984 187 188 180
1.76274 -0.229829 2.57573 187 188 180
1.74361 -0.22896 2.58235 185 185 179
1.72399 -0.228011 2.58794 185 185 179
1.70447 -0.227063 2.59337 185 185 179
1.68564 -0.226192 2.59955 188 188 182
1.65933 -0.224295 2.59374 189 189 183
1.64076 -0.223423 2.59956 188 188 182
1.62228 -0.22255 2.60524 189 189 183
1.59762 -0.220808 2.60056 187 187 181
1.57938 -0.219933 2.60589 189 189 183
1.568 -0.220006 2.62238 191 191 185
1.54991 -0.219131 2.6275 192 192 186
1.52582 -0.217385 2.62199 192 192 186
1.50246 -0.215717 2.61716 195 196 188
1.47929 -0.214048 2.61208 194 194 188
1.46226 -0.213249 2.61742 194 194 188
1.4394 -0.211578 2.61188 196 197 189
1.4226 -0.210777 2.61689 195 197 186
1.40641 -0.210054 2.62276 198 198 187
1.38979 -0.209252 2.62752 199 198 190
1.37377 -0.208528 2.63315 199 197 191
1.35732 -0.207725 2.63765 199 197 191
1.34147 -0.207001 2.64304 200 195 190
1.32571 -0.206275 2.6483 201 197 190
1.29991 -0.203963 2.63296 203 199 192
1.27435 -0.201648 2.61727 199 196 186
1.25452 -0.200206 2.61261 203 200 190
1.23977 -0.199557 2.61816 198 198 187
1.22461 -0.198827 2.62255 201 200 192
1.20565 -0.197462 2.61839 199 196 186
1.18636 -0.196016 2.61296 196 193 183
1.17628 -0.196081 2.62755 200 195 185
1.16621 -0.196145 2.64215 197 192 182
1.15613 -0.196209 2.65674 193 189 177
1.14606 -0.196274 2.67134 189 186 176
1.13599 -0.196338 2.68593 185 176 165
1.13002 -0.19712 2.71039 187 178 167
1.11991 -0.197185 2.72504 174 171 161
1.10173 -0.195814 2.71975 172 167 162
1.07969 -0.193725 2.70423 175 171 159
1.04334 -0.189002 2.65146 168 164 152
1.00486 -0.183796 2.59123 168 164 152
0.965622 -0.178348 2.52682 168 164 152
0.931231 -0.173695 2.47296 168 164 152
0.9075 -0.170955 2.44584 168 164 152
0.890355 -0.169413 2.43553 168 164 152
0.875868 -0.16835 2.43192 168 164 152
0.861908 -0.167365 2.4293 175 173 161
0.850908 -0.16694 2.43469 175 173 161
0.842379 -0.166994 2.44705 175 173 161
0.831053 -0.166489 2.45116 175 173 161
0.822553 -0.166543 2.46347 175 173 161
0.811704 -0.166117 2.46864 175 173 161
0.798194 -0.165129 2.46537 175 173 161
0.787088 -0.164622 2.46916 175 173 161
0.778694 -0.164676 2.48132 181 176 166
0.775175 -0.165772 2.50927 181 176 166
0.769324 -0.166388 2.53004 181 176 166
0.765617 -0.167485 2.55826 181 176 166
0.761804 -0.168584 2.58663 181 176 166
0.757885 -0.169683 2.61515 181 176 166
0.754213 -0.170862 2.64507 181 176 166
0.750077 -0.171963 2.67391 181 176 166
0.738907 -0.171456 2.67779 182 179 169
0.732586 -0.172075 2.69925 182 179 169
0.721473 -0.171567 2.70305 182 179 169
0.708411 -0.170577 2.69913 182 179 169
0.697437 -0.170069 2.70272 182 179 169
0.684564 -0.169078 2.69853 182 179 169
0.673728 -0.168569 2.70193 182 179 169
0.663268 -0.16814 2.70654 184 181 171
0.656621 -0.168678 2.72671 184 181 171
0.650235 -0.169297 2.74826 184 181 171
0.641652 -0.169352 2.7607 184 181 171
0.63307 -0.169407 2.77313 184 181 171
0.622407 -0.168897 2.77628 184 181 171
0.61004 -0.167903 2.77135 184 181 171
0.60154 -0.167957 2.78367 184 181 171
0.591328 -0.167527 2.78792 189 186 176
0.582853 -0.167581 2.8002 189 186 176
0.572438 -0.167069 2.80298 189 186 176
0.562353 -0.166638 2.80705 189 186 176
0.550436 -0.165641 2.80147 189 186 176
0.538626 -0.164642 2.79574 189 186 176
0.527182 -0.163725 2.79123 189 186 176
0.517375 -0.163292 2.79489 189 186 176
0.509132 -0.163344 2.80683 191 188 178
2.11177 -0.141287 -0.0305076 131 147 150
2.10473 -0.141332 -0.0202999 130 145 151
2.10377 -0.141787 -0.0101217 131 146 152
2.10155 -0.14216 0.000115558 129 144 150
2.11139 -0.143354 0.0104603 128 142 150
2.11509 -0.144139 0.0209108 128 145 152
2.11391 -0.144595 0.031397 132 150 155
2.11748 -0.14538 0.0420374 131 146 152
2.12217 -0.146248 0.0528139 128 143 149
2.12559 -0.147035 0.0636729 125 140 146
2.13012 -0.147904 0.0746807 127 142 148
2.13457 -0.148773 0.0858066 126 144 149
2.13894 -0.149643 0.0970507 123 138 144
2.13736 -0.150102 0.108117 124 138 146
2.13574 -0.150561 0.119243 122 139 146
2.12827 -0.150609 0.130072 121 140 147
2.1208 -0.150657 0.140901 123 138 144
2.11332 -0.150705 0.15173 127 140 146
2.1116 -0.151165 0.163003 124 139 145
2.12705 -0.152862 0.175758 120 138 143
2.13091 -0.153735 0.187743 123 138 144
2.13582 -0.154691 0.199952 118 133 139
2.14632 -0.156061 0.212855 124 139 145
2.15103 -0.157018 0.225354 120 138 143
2.15565 -0.157976 0.237984 114 134 139
2.15345 -0.158439 0.249962 115 132 139
2.15232 -0.158985 0.262136 110 129 136
2.15003 -0.159449 0.274238 110 129 136
2.14215 -0.159499 0.285659 112 131 140
2.1409 -0.160046 0.298005 109 128 137
2.13961 -0.160593 0.310421 107 126 135
2.13717 -0.161057 0.322742 98 117 126
2.13578 -0.161605 0.335295 101 115 125
2.10927 -0.160248 0.343831 99 113 121
2.07747 -0.158476 0.351249 86 107 130
2.03395 -0.155792 0.356321 70 105 139
2.00902 -0.154515 0.364324 60 103 140
1.97993 -0.152905 0.371333 59 101 141
1.95635 -0.151709 0.379142 56 98 138
1.93289 -0.150512 0.386773 53 97 137
1.90425 -0.1489 0.393131 53 97 139
1.88212 -0.147784 0.400602 51 91 129
1.86431 -0.147 0.408831 34 67 106
1.85707 -0.147046 0.41931 21 52 91
1.85507 -0.147508 0.431005 20 51 90
1.86239 -0.148718 0.444996 25 56 95
1.86545 -0.149597 0.458135 23 55 97
1.87359 -0.150892 0.472695 25 60 101
1.8816 -0.152187 0.487433 22 59 100
1.89975 -0.154316 0.505073 21 58 101
1.92483 -0.157029 0.524957 24 46 80
1.95575 -0.160243 0.546926 22 42 62
1.9651 -0.161709 0.563251 25 43 60
1.97935 -0.163594 0.581257 25 42 56
1.99543 -0.165646 0.600128 26 38 53
2.01731 -0.168199 0.621131 21 33 48
2.04592 -0.171338 0.644687 22 37 51
2.06332 -0.173562 0.665163 23 38 52
2.06766 -0.174701 0.681712 24 38 48
2.06599 -0.17534 0.696426 27 39 47
2.05741 -0.175395 0.70886 26 38 46
2.04883 -0.17545 0.721293 23 35 43
2.04025 -0.175505 0.733727 17 29 37
2.03747 -0.176062 0.748292 21 31 38
2.03561 -0.176702 0.763291 25 34 38
2.02026 -0.176172 0.773231 31 38 42
1.99923 -0.175139 0.78085 43 47 52
1.97261 -0.173603 0.786042 59 63 62
1.9575 -0.173071 0.795627 74 74 68
1.96131 -0.174214 0.812946 69 75 68
1.96502 -0.175358 0.830419 60 72 87
1.96301 -0.175999 0.84563 38 69 103
1.95442 -0.176054 0.858064 27 59 101
1.9514 -0.176612 0.872984 26 63 106
1.94925 -0.177254 0.888397 17 54 95
1.95347 -0.178484 0.906877 20 51 90
1.95027 -0.179044 0.922064 18 51 90
1.96067 -0.180863 0.943895 15 50 91
1.97089 -0.182683 0.965976 30 58 93
1.98185 -0.184588 0.988754 60 73 79
2.03304 -0.190277 1.03231 68 72 71
2.1096 -0.198407 1.09006 66 70 69
2.16135 -0.204271 1.13631 48 52 57
2.17534 -0.206606 1.16348 61 70 79
2.1653 -0.20667 1.17802 35 43 57
2.17106 -0.208249 1.20131 37 43 57
2.16968 -0.209156 1.22087 25 26 41
2.16735 -0.209979 1.24005 15 16 31
2.14938 -0.209286 1.25028 15 17 29
2.12286 -0.20775 1.25531 14 16 28
2.10508 -0.207055 1.26527 18 20 32
2.07969 -0.205602 1.27043 19 21 33
2.06208 -0.204906 1.28013 25 31 50
2.04455 -0.20421 1.28971 35 67 104
2.04979 -0.205793 1.31374 33 65 107
2.05489 -0.207376 1.33798 29 64 105
2.06817 -0.209806 1.36794 38 73 114
2.07293 -0.211391 1.39267 30 61 100
2.0627 -0.211457 1.40748 32 62 104
2.08365 -0.214735 1.4439 32 64 108
2.09776 -0.217338 1.47617 28 52 84
2.11974 -0.220789 1.5146 34 36 46
2.13413 -0.22348 1.54822 49 45 45
2.14022 -0.225327 1.57629 50 48 42
2.15573 -0.228191 1.61179 63 61 55
2.16223 -0.230125 1.64104 69 69 63
2.17725 -0.232992 1.67725 83 82 79
2.19358 -0.23603 1.71509 71 76 72
2.20962 -0.23907 1.75334 46 48 42
2.2168 -0.241179 1.7851 49 49 43
2.20518 -0.241253 1.80194 55 56 48
2.17505 -0.239291 1.80343 49 62 75
2.16352 -0.239365 1.82012 43 72 111
2.152 -0.239438 1.83682 39 71 113
2.15869 -0.241551 1.86929 35 66 105
2.16594 -0.243749 1.90271 35 66 105
2.19176 -0.248073 1.95315 49 73 105
2.22912 -0.25376 2.01499 78 82 87
2.23697 -0.256134 2.05105 72 68 61
2.22466 -0.256213 2.06888 66 65 57
2.20207 -0.255101 2.07701 68 67 59
2.18982 -0.255179 2.09477 68 68 57
2.17756 -0.255257 2.11252 70 67 57
2.18481 -0.257635 2.14945 68 68 57
2.20261 -0.261293 2.19745 64 64 58
2.2315 -0.266316 2.25751 60 82 114
2.26132 -0.271512 2.31972 58 86 121
2.28078 -0.275518 2.37235 56 80 114
2.29003 -0.278332 2.41516 65 84 112
2.29903 -0.281148 2.45836 101 113 121
2.28556 -0.281234 2.47787 114 123 127
2.28313 -0.282686 2.5095 136 140 139
2.25863 -0.281406 2.51688 176 174 168
2.24516 -0.281492 2.53639 184 182 176
2.18835 -0.276109 2.50626 187 186 178
2.17514 -0.276194 2.52539 187 186 178
2.1412 -0.273627 2.52011 189 188 180
2.12812 -0.273711 2.53905 192 191 183
2.11504 -0.273795 2.558 193 192 184
2.09211 -0.272595 2.56487 191 191 180
2.05951 -0.27011 2.55939 191 191 180
2.00834 -0.265139 2.52986 190 190 179
1.96797 -0.261537 2.51279 190 190 179
1.9555 -0.261616 2.53087 189 188 180
1.94302 -0.261696 2.54895 187 186 178
1.93054 -0.261776 2.56702 189 188 180
1.90927 -0.260655 2.57325 187 186 178
1.88811 -0.259533 2.5793 189 188 180
1.85901 -0.257295 2.57403 189 188 180
1.83012 -0.255056 2.56844 188 189 181
1.80207 -0.252901 2.5634 187 188 180
1.79004 -0.252978 2.58084 188 189 181
1.77015 -0.251938 2.5868 187 188 180
1.75817 -0.252014 2.60416 187 188 180
1.73845 -0.250973 2.6099 185 186 178
1.71942 -0.250018 2.61638 182 184 178
1.6999 -0.248975 2.62182 186 188 182
1.67349 -0.246899 2.61615 186 188 182
1.64034 -0.243789 2.59918 187 189 183
1.61496 -0.241797 2.59378 189 189 183
1.5972 -0.240923 2.60018 188 188 182
1.57897 -0.239962 2.60551 191 191 185
1.56759 -0.240035 2.622 190 190 184
1.5495 -0.239073 2.62713 192 193 185
1.53817 -0.239145 2.64354 194 195 187
1.51417 -0.237234 2.6379 191 192 184
1.49091 -0.235407 2.63295 194 195 187
1.47976 -0.235478 2.6491 195 196 188
1.45677 -0.23365 2.64376 195 196 188
1.43983 -0.232771 2.64897 196 195 187
1.42298 -0.231891 2.65405 197 196 188
1.40623 -0.23101 2.659 196 195 187
1.38434 -0.229265 2.65381 197 196 188
1.36781 -0.228383 2.65844 197 196 188
1.34109 -0.22577 2.64269 196 192 185
1.31003 -0.222378 2.6174 198 194 187
1.27981 -0.219069 2.59267 193 190 180
1.2504 -0.215845 2.5685 196 193 183
1.22629 -0.213485 2.55425 193 189 182
1.20733 -0.211991 2.55009 188 186 174
1.19733 -0.212054 2.56457 153 148 143
1.18296 -0.211338 2.56958 132 123 118
1.16867 -0.210622 2.57447 110 103 104
1.16733 -0.212246 2.60804 118 115 112
1.16584 -0.213872 2.64182 145 140 135
1.16468 -0.215586 2.67689 131 123 116
1.14988 -0.214782 2.68076 136 130 123
1.13562 -0.214065 2.6856 126 120 113
1.12555 -0.21413 2.7002 134 129 119
1.1114 -0.213412 2.70488 136 131 121
1.08925 -0.21113 2.68952 135 128 130
1.06022 -0.207454 2.65604 135 130 125
1.02449 -0.202385 2.60414 132 126 114
0.987505 -0.196965 2.54704 132 126 114
0.949303 -0.191194 2.48467 132 126 114
0.924916 -0.188118 2.45675 132 126 114
0.904215 -0.185736 2.43755 132 126 114
0.887101 -0.18405 2.42721 132 126 114
0.870151 -0.182362 2.41663 132 126 114
0.850894 -0.180151 2.39884 132 126 114
0.837148 -0.179072 2.39592 132 126 114
0.826333 -0.178602 2.40104 132 126 114
0.817963 -0.178656 2.41317 132 126 114
0.811966 -0.179233 2.4324 132 126 114
0.803571 -0.179286 2.44456 132 126 114
0.792854 -0.178816 2.44955 132 126 114
0.784484 -0.17887 2.46167 132 126 114
0.776115 -0.178923 2.4738 132 126 114
0.769994 -0.179501 2.49321 132 126 114
0.764196 -0.180167 2.51391 132 126 114
0.76054 -0.181357 2.54204 132 126 114
0.756778 -0.182549 2.57033 132 126 114
0.757571 -0.184878 2.61487 132 126 114
0.753897 -0.186159 2.64478 132 126 114
0.749759 -0.187352 2.67362 132 126 114
0.741013 -0.187408 2.68629 132 126 114
0.734663 -0.188078 2.70779 132 126 114
0.721155 -0.186907 2.70276 132 126 114
0.710435 -0.186437 2.70775 132 126 114
0.697123 -0.185265 2.70244 132 126 114
0.686206 -0.184706 2.70596 132 126 114
0.673418 -0.183621 2.70165 132 126 114
0.664864 -0.183675 2.71404 133 127 115
0.658505 -0.184345 2.73555 133 127 115
0.649923 -0.1844 2.74798 133 127 115
0.643173 -0.184982 2.7683 133 127 115
0.634566 -0.185037 2.78077 133 127 115
0.624176 -0.184564 2.78528 133 127 115
0.611782 -0.183476 2.7804 133 127 115
0.601231 -0.182915 2.78339 133 127 115
0.59273 -0.18297 2.7957 134 128 116
0.582544 -0.182496 2.79992 134 128 116
0.57213 -0.181934 2.80271 134 128 116
0.562046 -0.18146 2.80677 134 128 116
0.54852 -0.179841 2.79299 134 128 116
0.535149 -0.17822 2.77898 134 128 116
0.523756 -0.177216 2.7744 134 128 116
0.513999 -0.176739 2.77799 134 128 116
0.507319 -0.177321 2.79821 133 127 115
2.10662 -0.153328 -0.0306679 129 147 152
2.10447 -0.15373 -0.0205315 130 148 153
2.09743 -0.153775 -0.0103242 127 146 148
2.10736 -0.155069 -0.00011741 126 145 147
2.11717 -0.156364 0.0102546 128 148 153
2.12085 -0.157214 0.020734 127 146 153
2.12446 -0.158063 0.0313198 126 145 152
2.12918 -0.159003 0.0420355 127 144 151
2.12668 -0.159407 0.0526929 123 140 147
2.13127 -0.160347 0.06361 130 144 154
2.13577 -0.161288 0.0746457 124 138 148
2.1343 -0.161782 0.0855636 124 139 145
2.13279 -0.162277 0.09654 128 142 150
2.13123 -0.162772 0.107576 123 138 144
2.12963 -0.163267 0.118671 123 138 144
2.11055 -0.162419 0.128761 123 141 146
2.06371 -0.159422 0.136887 122 140 145
2.02409 -0.15696 0.145107 120 138 143
2.00081 -0.155751 0.154238 114 131 140
2.00403 -0.156603 0.16538 122 134 142
2.0289 -0.159159 0.17854 126 138 146
2.05468 -0.161807 0.192138 114 129 135
2.08135 -0.164546 0.206192 120 134 142
2.09082 -0.16594 0.218826 114 131 138
2.10016 -0.167335 0.231638 108 125 132
2.10489 -0.168371 0.244106 111 125 133
2.10282 -0.168869 0.255888 108 125 132
2.10182 -0.169458 0.267871 105 124 133
2.09412 -0.169507 0.279038 109 127 139
2.09194 -0.170006 0.290974 106 124 136
2.10185 -0.171494 0.304727 100 118 130
2.10613 -0.172534 0.317841 96 115 124
2.11689 -0.174113 0.332115 93 110 117
2.10244 -0.173624 0.342506 90 105 111
2.07719 -0.172234 0.350991 82 102 127
2.04016 -0.169852 0.357204 70 102 139
2.00336 -0.167469 0.363097 64 100 138
1.96892 -0.165265 0.369073 60 98 136
1.94004 -0.16351 0.375789 54 94 132
1.92197 -0.162656 0.384398 48 90 130
1.89868 -0.16135 0.391794 45 89 131
1.87657 -0.160134 0.399238 51 89 127
1.85983 -0.159368 0.40767 28 62 99
1.85262 -0.159414 0.418126 19 50 89
1.8548 -0.160273 0.430766 23 52 91
1.85692 -0.161133 0.443513 19 50 89
1.86518 -0.162534 0.457893 23 55 99
1.87332 -0.163937 0.472452 21 57 102
1.89162 -0.166244 0.489851 19 57 102
1.93225 -0.170542 0.513537 17 55 100
1.9919 -0.176562 0.543066 23 45 72
2.05608 -0.183037 0.574796 24 36 44
2.07919 -0.185895 0.595766 29 39 41
2.09096 -0.187759 0.613846 33 41 43
2.09554 -0.188991 0.630051 31 39 41
2.10001 -0.190223 0.646409 27 35 37
2.11135 -0.19209 0.665117 30 39 43
2.11558 -0.193324 0.681825 30 39 43
2.10686 -0.19338 0.694454 30 39 43
2.09814 -0.193435 0.707083 31 40 44
2.08942 -0.193491 0.719713 29 38 42
2.07485 -0.193002 0.730281 28 37 41
2.05936 -0.192423 0.74043 24 32 34
2.0507 -0.192478 0.752982 31 37 37
2.04878 -0.193169 0.768062 36 40 39
2.04008 -0.193225 0.780655 43 43 43
2.01134 -0.191372 0.785417 55 52 49
1.98466 -0.1897 0.790688 69 68 60
1.9695 -0.189118 0.800351 88 87 79
1.961 -0.189173 0.812666 68 67 59
1.95907 -0.189864 0.827758 59 70 83
1.95615 -0.190464 0.84253 42 69 107
1.95411 -0.191156 0.857782 22 57 100
1.95109 -0.191758 0.872702 24 61 104
1.95539 -0.193088 0.891055 22 59 100
1.95867 -0.194328 0.909148 15 45 87
1.96275 -0.195659 0.927827 14 46 88
1.96672 -0.196991 0.946672 15 50 93
1.97691 -0.198963 0.968791 21 52 91
1.98784 -0.201026 0.991608 54 67 80
2.03988 -0.207288 1.03565 66 72 72
2.1021 -0.214649 1.08605 51 54 57
2.15298 -0.220918 1.13177 28 30 35
2.15903 -0.222625 1.15463 17 23 37
2.16493 -0.224332 1.17769 16 22 36
2.16279 -0.225219 1.1966 18 22 36
2.16058 -0.226106 1.21562 22 24 36
2.15916 -0.227085 1.23524 25 27 37
2.14901 -0.22715 1.24995 21 21 31
2.13025 -0.2263 1.25957 23 23 33
2.12014 -0.226365 1.27421 20 20 30
2.11003 -0.226429 1.28886 21 21 31
2.08464 -0.224846 1.29403 24 26 38
2.067 -0.224086 1.30377 34 65 104
2.06456 -0.224975 1.32311 30 62 104
2.06958 -0.226688 1.34745 26 58 102
2.08278 -0.229319 1.37752 38 70 114
2.07256 -0.229385 1.39233 26 56 98
2.07057 -0.230367 1.41277 27 57 101
2.09148 -0.233919 1.44924 29 64 107
2.1137 -0.237656 1.48731 26 58 100
2.13641 -0.241486 1.52643 44 66 86
2.1507 -0.244401 1.56018 66 78 86
2.16635 -0.247502 1.59547 70 79 83
2.17293 -0.249593 1.62458 37 47 49
2.17058 -0.250675 1.64731 50 56 56
2.16813 -0.251757 1.67017 51 55 54
2.18372 -0.254955 1.70732 51 55 54
2.19118 -0.257235 1.73866 61 62 59
2.20703 -0.260528 1.77718 71 71 71
2.19546 -0.260602 1.79395 67 69 63
2.17463 -0.259571 1.80305 65 72 76
2.1631 -0.259645 1.81974 48 75 113
2.16074 -0.260824 1.84426 38 70 114
2.16813 -0.263201 1.87745 28 60 104
2.17457 -0.265487 1.91028 34 64 106
2.18232 -0.267959 1.94473 40 67 105
2.19881 -0.271539 1.98759 77 79 89
2.20608 -0.274014 2.02273 91 90 87
2.20427 -0.275383 2.04993 102 102 91
2.20162 -0.276661 2.07661 111 108 98
2.18937 -0.276739 2.09436 107 107 96
2.18728 -0.27811 2.12198 104 102 90
2.19447 -0.280683 2.15899 108 105 95
2.20216 -0.283349 2.19704 103 99 92
2.22032 -0.287403 2.24626 70 87 108
2.23956 -0.291644 2.29744 60 86 121
2.26901 -0.297274 2.36017 57 83 118
2.27832 -0.300318 2.40288 61 82 111
2.28737 -0.303364 2.44598 101 110 119
2.26288 -0.301969 2.45336 112 119 123
2.26057 -0.303535 2.48481 144 141 145
2.23621 -0.302139 2.492 176 175 167
2.22287 -0.302225 2.51132 185 185 174
2.18787 -0.299345 2.50582 189 189 178
2.16389 -0.297947 2.51245 189 189 178
2.14072 -0.29664 2.51968 189 189 178
2.11767 -0.295333 2.52672 191 191 180
2.10465 -0.295416 2.54558 192 192 181
2.08179 -0.294108 2.55236 191 191 180
2.04925 -0.291407 2.5468 192 192 181
2.00788 -0.287404 2.52944 190 190 179
1.97654 -0.284792 2.52391 190 189 181
1.95504 -0.283572 2.53046 187 187 176
1.94257 -0.283652 2.54854 190 190 179
1.93009 -0.283732 2.56661 187 187 176
1.91761 -0.283812 2.58469 189 188 180
1.8964 -0.28259 2.59083 188 189 181
1.85856 -0.278856 2.57363 185 186 178
1.82968 -0.276422 2.56804 187 186 178
1.80163 -0.27408 2.563 189 188 180
1.7896 -0.274157 2.58044 187 186 178
1.78541 -0.275444 2.60934 187 186 178
1.78111 -0.276733 2.6384 186 185 177
1.76897 -0.27681 2.65599 186 185 177
1.74146 -0.274465 2.65019 185 186 178
1.71415 -0.272118 2.64407 184 185 177
1.68006 -0.268651 2.62671 188 189 181
1.64686 -0.265275 2.60981 189 190 182
1.62144 -0.26311 2.60449 190 191 183
1.59679 -0.261037 2.59981 189 190 182
1.57175 -0.25887 2.59392 189 189 183
1.56042 -0.258942 2.61033 190 190 184
1.54294 -0.257987 2.61633 190 190 184
1.53165 -0.25806 2.63269 190 191 183
1.52037 -0.258132 2.64904 188 189 181
1.50252 -0.257082 2.65381 189 191 180
1.48532 -0.256126 2.65941 194 196 185
1.46228 -0.254139 2.65414 194 195 187
1.44531 -0.253181 2.65942 192 191 183
1.42842 -0.252223 2.66456 192 191 183
1.40583 -0.250233 2.65864 192 191 183
1.38917 -0.249273 2.66346 193 193 182
1.36742 -0.247376 2.65808 194 191 181
1.33042 -0.242667 2.62209 196 193 183
1.29436 -0.238048 2.58651 193 190 180
1.25567 -0.232865 2.54419 187 183 176
1.22246 -0.228616 2.51151 181 177 170
1.18663 -0.223803 2.47207 173 171 165
1.16405 -0.221425 2.4591 93 80 79
1.15441 -0.221487 2.47308 55 41 43
1.14477 -0.221549 2.48705 59 43 45
1.13945 -0.222456 2.51056 64 47 44
1.15027 -0.226557 2.57041 67 52 44
1.15697 -0.229908 2.6222 69 54 46
1.16431 -0.233449 2.67655 68 55 49
1.14115 -0.230882 2.66093 72 58 54
1.12282 -0.229254 2.65586 69 56 50
1.10464 -0.227624 2.65058 73 57 52
1.09113 -0.226935 2.6561 75 57 52
1.07724 -0.226151 2.66041 75 57 52
1.05231 -0.223013 2.6368 71 57 47
1.01711 -0.217614 2.58592 74 58 41
0.980628 -0.211834 2.52986 74 58 41
0.939473 -0.204921 2.4595 74 58 41
0.912615 -0.20102 2.42464 74 58 41
0.889913 -0.197965 2.39956 74 58 41
0.870419 -0.195568 2.38213 74 58 41
0.848644 -0.192604 2.35746 77 61 44
0.83248 -0.190864 2.34751 77 61 44
0.824213 -0.190917 2.35948 77 61 44
0.815945 -0.19097 2.37146 77 61 44
0.810073 -0.19159 2.39051 77 61 44
0.801781 -0.191643 2.40252 77 61 44
0.795836 -0.192263 2.42168 77 61 44
0.787519 -0.192316 2.43373 77 61 44
0.776905 -0.191802 2.43856 76 57 41
0.768613 -0.191855 2.45058 76 57 41
0.760321 -0.191908 2.46259 76 57 41
0.754253 -0.192529 2.48192 76 57 41
0.750701 -0.193812 2.5099 76 57 41
0.751756 -0.196327 2.55404 76 57 41
0.754748 -0.199411 2.60592 76 57 41
0.751101 -0.200792 2.6358 76 57 41
0.749441 -0.202742 2.67333 74 55 39
0.743118 -0.203462 2.69479 74 55 39
0.736738 -0.204181 2.71633 74 55 39
0.723204 -0.20291 2.71134 74 55 39
0.710118 -0.201733 2.70747 74 55 39
0.699117 -0.201125 2.71111 74 55 39
0.685893 -0.199852 2.70567 74 55 39
0.675357 -0.199337 2.7104 74 55 39
0.664552 -0.198727 2.71376 80 60 46
0.658193 -0.199447 2.73527 80 60 46
0.651466 -0.200072 2.75555 80 60 46
0.642859 -0.200127 2.76802 80 60 46
0.634253 -0.200182 2.78049 80 60 46
0.623863 -0.199667 2.785 80 60 46
0.61323 -0.199056 2.78811 80 60 46
0.600921 -0.197874 2.78311 80 60 46
0.588717 -0.196691 2.77795 80 60 46
0.58027 -0.196745 2.79019 80 60 46
0.570163 -0.196228 2.79429 80 60 46
0.558197 -0.195044 2.78879 80 60 46
0.544726 -0.193287 2.77494 80 60 46
0.533262 -0.192197 2.77047 80 60 46
0.520333 -0.190534 2.75758 80 60 46
0.510627 -0.190014 2.7611 81 64 49
0.503995 -0.190638 2.78125 81 64 49
2.10024 -0.165216 -0.0308092 127 146 153
2.09933 -0.165743 -0.020715 127 146 153
2.09717 -0.166173 -0.0105558 125 144 151
2.1071 -0.167568 -0.000351012 130 149 156
2.11691 -0.168964 0.0100193 126 145 152
2.12661 -0.17036 0.0205555 126 146 151
2.13019 -0.171275 0.0311695 130 147 154
2.1337 -0.17219 0.0418905 129 143 151
2.13833 -0.173202 0.052747 127 141 149
2.13694 -0.173732 0.0635455 125 143 148
2.13551 -0.174262 0.0744034 127 141 149
2.13403 -0.174792 0.0853206 128 142 150
2.13252 -0.175323 0.0962966 122 136 144
2.13096 -0.175853 0.107332 120 134 142
2.11185 -0.174934 0.117453 124 139 145
2.06491 -0.171692 0.125754 123 137 145
1.97882 -0.16516 0.131044 122 137 143
1.91756 -0.160655 0.137264 117 128 132
1.8866 -0.158666 0.145232 105 102 106
1.88449 -0.159096 0.155314 90 83 84
1.90177 -0.161173 0.167152 86 84 84
1.92344 -0.163639 0.179663 79 79 79
1.94151 -0.165815 0.192134 77 82 78
1.94921 -0.16712 0.203801 74 80 80
1.95794 -0.168522 0.215746 77 80 83
1.96655 -0.169926 0.227857 74 82 84
1.96945 -0.170845 0.239454 74 83 87
1.96783 -0.171376 0.25059 71 81 88
1.9706 -0.172296 0.262377 70 82 92
1.97884 -0.173701 0.275039 77 94 103
1.99356 -0.175691 0.288824 92 111 120
2.00813 -0.177681 0.302847 89 108 115
2.03347 -0.180644 0.318821 93 111 116
2.04876 -0.182734 0.333553 90 105 111
2.04108 -0.182783 0.344684 84 102 119
2.01068 -0.18079 0.351841 66 99 133
1.97076 -0.17792 0.356992 57 94 130
1.94718 -0.176508 0.364805 52 91 127
1.92373 -0.175096 0.37244 46 86 124
1.90572 -0.174169 0.380962 43 83 121
1.88886 -0.173339 0.389584 42 82 120
1.87102 -0.172412 0.397875 45 83 121
1.86378 -0.172458 0.408355 30 62 99
1.86179 -0.172992 0.420018 20 51 90
1.85976 -0.173526 0.43174 17 46 85
1.86186 -0.17445 0.444516 20 49 88
1.87009 -0.17596 0.458924 19 51 93
1.87305 -0.176982 0.472208 18 52 97
1.8862 -0.178982 0.488273 16 51 99
1.93197 -0.184106 0.513284 17 52 100
1.98548 -0.190014 0.541135 18 38 63
2.04359 -0.196413 0.571117 15 22 31
2.06674 -0.199494 0.592011 17 22 25
2.07049 -0.20072 0.607651 15 20 23
2.08218 -0.202729 0.625848 14 19 22
2.0867 -0.204054 0.642127 14 19 22
2.09112 -0.20538 0.658561 11 18 22
2.08848 -0.206022 0.672911 11 18 22
2.07988 -0.206077 0.685381 11 19 21
2.06537 -0.205545 0.695862 12 21 20
2.04993 -0.204914 0.705934 18 26 28
2.0482 -0.205655 0.720729 22 30 32
2.03962 -0.20571 0.733163 29 37 39
2.03684 -0.206352 0.747727 44 48 48
2.04172 -0.20778 0.765249 74 79 75
2.03977 -0.208521 0.78037 38 39 36
2.01102 -0.206518 0.785134 47 45 39
1.99006 -0.205297 0.79268 76 70 63
1.96919 -0.204077 0.800072 89 86 76
1.96069 -0.204131 0.812387 78 75 65
1.95219 -0.204185 0.824702 64 71 80
1.95023 -0.204927 0.839834 42 68 103
1.9417 -0.204982 0.852191 24 56 98
1.94522 -0.206314 0.869933 28 63 104
1.95508 -0.208334 0.89077 22 61 102
1.96478 -0.210355 0.911844 14 47 86
1.96883 -0.211788 0.930563 14 46 88
1.9664 -0.212532 0.946382 15 50 93
1.97025 -0.213966 0.965391 23 55 97
1.9812 -0.216188 0.988164 61 79 91
2.02518 -0.222053 1.02806 79 87 89
2.07226 -0.228314 1.0705 67 67 68
2.11437 -0.234087 1.11135 28 30 35
2.13565 -0.237596 1.14199 33 30 39
2.14871 -0.240221 1.16874 28 29 37
2.15453 -0.242059 1.19191 24 24 34
2.15235 -0.243011 1.21087 24 24 34
2.1501 -0.243962 1.22994 31 31 43
2.13999 -0.244027 1.24459 38 34 47
2.13849 -0.245079 1.26432 36 32 43
2.12834 -0.245143 1.27903 25 21 32
2.12586 -0.246097 1.29842 20 16 27
2.10803 -0.245273 1.30844 23 23 33
2.08944 -0.244351 1.31783 34 64 101
2.07176 -0.243526 1.32763 24 59 102
2.07758 -0.245468 1.35257 21 56 99
2.08241 -0.247312 1.37718 35 65 107
2.07218 -0.247378 1.392 26 56 98
2.07762 -0.249322 1.41749 26 56 98
2.0911 -0.252257 1.4489 25 60 103
2.12147 -0.257271 1.4927 24 54 91
2.15306 -0.262486 1.53826 20 33 52
2.15919 -0.264634 1.56626 32 40 42
2.17479 -0.267972 1.60162 39 45 44
2.17252 -0.269132 1.62422 48 52 51
2.17017 -0.270293 1.64695 45 49 48
2.17643 -0.272545 1.67651 49 53 52
2.17464 -0.273807 1.70018 47 52 48
2.18137 -0.276159 1.73083 57 58 55
2.19726 -0.279704 1.76928 66 67 64
2.18573 -0.279777 1.78597 73 75 69
2.17421 -0.279851 1.80267 70 76 75
2.16268 -0.279925 1.81937 55 79 113
2.16947 -0.282382 1.85169 41 72 111
2.17681 -0.284939 1.88495 33 65 107
2.18395 -0.287497 1.91851 33 63 105
2.18188 -0.288865 1.94434 39 66 104
2.17896 -0.290134 1.96965 82 86 91
2.17668 -0.291502 1.99578 106 104 98
2.1839 -0.294165 2.03099 107 108 100
2.19163 -0.296928 2.06721 111 111 100
2.18892 -0.298299 2.09396 116 113 103
2.18684 -0.299771 2.12157 113 110 100
2.19402 -0.302538 2.15858 109 106 96
2.2017 -0.305405 2.19663 99 96 93
2.19987 -0.30698 2.22562 67 79 94
2.2178 -0.311344 2.27518 57 84 117
2.24736 -0.317405 2.33772 60 86 121
2.26661 -0.322074 2.39061 61 83 117
2.28689 -0.326945 2.44554 97 112 118
2.26239 -0.325435 2.45293 112 120 122
2.26009 -0.327116 2.48437 138 136 137
2.22476 -0.324009 2.47935 170 172 161
2.22239 -0.325691 2.51088 184 185 172
2.19822 -0.324178 2.5178 190 191 178
2.16342 -0.321068 2.51202 187 187 176
2.14025 -0.319653 2.51925 189 189 178
2.10723 -0.316739 2.5144 191 191 180
2.08436 -0.315323 2.52118 193 193 182
2.06162 -0.313906 2.52778 191 191 180
2.039 -0.312488 2.53421 192 191 183
1.99835 -0.308269 2.51759 190 189 181
1.97609 -0.306849 2.52349 189 188 180
1.95459 -0.305528 2.53005 189 189 178
1.95102 -0.307009 2.55981 189 189 178
1.93848 -0.307089 2.57797 189 190 177
1.92595 -0.30717 2.59613 190 190 179
1.89595 -0.304445 2.59042 187 189 178
1.85812 -0.300416 2.57322 187 189 178
1.82924 -0.297788 2.56764 183 184 176
1.8012 -0.295259 2.56261 184 185 177
1.78916 -0.295336 2.58004 185 185 179
1.79281 -0.298021 2.62041 184 185 177
1.79686 -0.300808 2.66198 184 185 177
1.79294 -0.302291 2.69224 183 184 176
1.77235 -0.300964 2.69748 184 185 177
1.73661 -0.297026 2.679 184 185 177
1.70179 -0.293186 2.66096 187 188 180
1.66091 -0.288239 2.63237 185 186 178
1.62792 -0.284596 2.61519 187 187 181
1.60265 -0.282258 2.60965 187 187 181
1.57134 -0.278812 2.59354 188 188 182
1.55382 -0.277778 2.59961 188 188 182
1.54253 -0.277851 2.61596 189 189 183
1.53124 -0.277923 2.63231 189 190 182
1.51335 -0.276787 2.63716 190 191 183
1.4961 -0.275752 2.64283 189 190 182
1.48491 -0.275823 2.65905 190 191 183
1.46188 -0.273679 2.65378 191 192 184
1.4449 -0.272642 2.65905 192 192 186
1.42219 -0.270495 2.65333 189 190 182
1.39965 -0.268348 2.64734 189 188 180
1.37782 -0.2663 2.64209 189 185 178
1.35615 -0.264251 2.63659 191 187 180
1.3249 -0.260284 2.61162 191 187 180
1.2894 -0.255407 2.577 191 188 178
1.2457 -0.248811 2.5244 184 181 171
1.20455 -0.242616 2.47513 175 171 164
1.16539 -0.23672 2.42824 164 160 153
1.1356 -0.23264 2.3994 96 86 84
1.11836 -0.231083 2.39627 50 39 33
1.11289 -0.231951 2.41824 57 46 40
1.10736 -0.23282 2.44031 62 46 41
1.12512 -0.238644 2.51468 60 47 41
1.1358 -0.243055 2.57473 68 53 45
1.1302 -0.244029 2.59865 68 52 47
1.09247 -0.23802 2.54793 70 54 49
1.0603 -0.233121 2.50849 70 55 47
1.05089 -0.233181 2.52212 71 57 47
1.0451 -0.234052 2.54456 77 61 51
1.03924 -0.234923 2.5671 77 60 52
1.0191 -0.232552 2.55412 78 61 53
0.982886 -0.226429 2.49946 78 60 48
0.935834 -0.217667 2.41484 78 60 48
0.895539 -0.21032 2.34501 78 60 48
0.867816 -0.20581 2.30614 78 60 48
0.849357 -0.203428 2.29074 78 60 48
0.828578 -0.200436 2.26816 78 60 48
0.818013 -0.199878 2.27292 73 55 45
0.814903 -0.201148 2.2985 73 55 45
0.811694 -0.202419 2.32423 73 55 45
0.810806 -0.2043 2.35713 73 55 45
0.804982 -0.204962 2.3761 73 55 45
0.79674 -0.205015 2.38804 73 55 45
0.786151 -0.204457 2.39285 73 55 45
0.777932 -0.20451 2.40475 73 55 45
0.767417 -0.203952 2.40945 72 54 42
0.761496 -0.204615 2.42857 72 54 42
0.753277 -0.204668 2.44047 72 54 42
0.749504 -0.205942 2.46701 72 54 42
0.748198 -0.207929 2.50227 72 54 42
0.751447 -0.211242 2.55377 72 54 42
0.752285 -0.213945 2.59821 72 54 42
0.748307 -0.215325 2.62681 72 54 42
0.746673 -0.217419 2.6643 72 54 42
0.742799 -0.218902 2.6945 72 54 42
0.736418 -0.219672 2.71604 72 54 42
0.725251 -0.219014 2.71992 72 54 42
0.711805 -0.217642 2.71482 72 54 42
0.698802 -0.216371 2.71082 72 54 42
0.68558 -0.214997 2.70539 72 54 42
0.675045 -0.214439 2.71012 72 54 42
0.664241 -0.213779 2.71348 70 54 42
0.65788 -0.214549 2.73498 70 54 42
0.651153 -0.215217 2.75527 70 54 42
0.644682 -0.215988 2.77694 70 54 42
0.636047 -0.216043 2.78945 70 54 42
0.625333 -0.215382 2.79268 70 54 42
0.61292 -0.214108 2.78783 70 54 42
0.600612 -0.212832 2.78283 70 54 42
0.588411 -0.211556 2.77767 70 54 42
0.57828 -0.210996 2.78181 70 54 42
0.567922 -0.210333 2.78453 70 54 42
0.556258 -0.209157 2.78035 70 54 42
0.542815 -0.207264 2.76646 70 54 42
0.529791 -0.205472 2.75371 70 54 42
0.520036 -0.20491 2.75731 70 54 42
0.51033 -0.204347 2.76083 71 56 41
0.503697 -0.205014 2.78098 71 56 41
2.10611 -0.178067 -0.03113 126 146 151
2.10396 -0.178526 -0.0209947 132 150 155
2.09691 -0.178572 -0.0107875 133 151 156
2.10078 -0.179549 -0.000583018 130 148 153
2.11665 -0.181563 0.00978387 130 145 151
2.12635 -0.18306 0.0203183 129 146 153
2.12993 -0.18404 0.0309312 129 147 152
2.13344 -0.185019 0.0416505 128 144 147
2.13211 -0.185585 0.0523597 127 144 145
2.13073 -0.18615 0.063128 129 143 151
2.12932 -0.186716 0.0739556 127 141 149
2.12786 -0.187282 0.0848423 127 141 149
2.12637 -0.187849 0.0957881 124 138 146
2.11312 -0.187377 0.106204 125 139 142
2.06139 -0.183476 0.114423 122 138 141
1.97973 -0.176871 0.120354 121 136 142
1.89512 -0.169951 0.125297 122 133 137
1.84339 -0.165939 0.131758 123 116 118
1.81155 -0.163693 0.139261 120 113 108
1.80855 -0.164046 0.148863 124 118 106
1.81125 -0.16492 0.159003 97 93 86
1.82185 -0.166522 0.169981 87 86 78
1.82893 -0.167813 0.1808 81 81 75
1.83478 -0.169001 0.191643 80 82 76
1.83715 -0.169877 0.202245 77 78 75
1.83498 -0.170336 0.212421 72 73 70
1.83724 -0.171213 0.223188 69 70 67
1.84056 -0.172194 0.234192 71 69 69
1.84268 -0.173071 0.245155 69 68 72
1.8547 -0.174887 0.257595 62 66 66
1.86658 -0.176704 0.270236 68 68 69
1.87832 -0.178522 0.283078 69 73 72
1.90086 -0.181385 0.297835 66 71 74
1.92426 -0.184353 0.31309 67 75 77
1.92682 -0.185339 0.325195 62 76 84
1.91956 -0.185386 0.335704 58 85 109
1.89722 -0.183969 0.343483 52 88 118
1.88037 -0.183075 0.352101 43 82 111
1.87321 -0.183121 0.362474 38 75 111
1.86605 -0.183167 0.372847 29 68 104
1.85889 -0.183212 0.38322 32 68 106
1.86124 -0.1842 0.395616 39 77 115
1.86352 -0.185187 0.408117 29 61 98
1.86153 -0.185757 0.41978 16 47 86
1.86368 -0.186745 0.432471 21 50 89
1.86679 -0.187839 0.445517 17 46 85
1.86983 -0.188933 0.458681 19 50 89
1.87278 -0.190028 0.471964 17 52 95
1.88079 -0.191647 0.486696 18 53 96
1.91531 -0.195992 0.508678 14 50 95
1.95663 -0.201073 0.533091 6 25 53
1.99452 -0.205842 0.557221 6 14 21
2.00471 -0.207781 0.57406 8 13 16
2.01475 -0.209721 0.591111 10 15 18
2.01863 -0.211033 0.606566 11 16 19
2.02841 -0.212975 0.624009 12 20 22
2.03903 -0.215023 0.641978 16 22 29
2.03661 -0.215706 0.65602 23 30 41
2.02822 -0.21576 0.668182 34 54 72
2.01982 -0.215814 0.680343 36 57 80
2.01143 -0.215868 0.692504 36 57 80
2.00986 -0.216657 0.707067 37 63 85
2.00726 -0.217342 0.721364 18 31 37
2.01816 -0.219499 0.7407 27 32 35
2.02792 -0.221553 0.759913 64 69 65
2.03274 -0.223081 0.777517 46 48 42
2.01739 -0.2224 0.78746 33 31 25
1.98974 -0.220349 0.792399 69 63 56
1.96889 -0.219035 0.799792 93 86 76
1.95473 -0.218457 0.809765 89 85 73
1.95188 -0.219144 0.824423 68 70 75
1.93778 -0.218566 0.834324 44 68 102
1.93488 -0.219253 0.849053 21 55 100
1.93842 -0.220678 0.866752 23 60 103
1.95476 -0.22358 0.890486 22 59 102
1.97089 -0.226483 0.914539 12 44 86
1.96851 -0.227278 0.930273 15 45 87
1.96607 -0.228073 0.946092 11 46 89
1.96992 -0.229608 0.965099 10 45 88
1.98087 -0.231988 0.987868 53 67 75
2.01138 -0.236692 1.02092 75 81 81
2.04332 -0.241611 1.05542 66 66 66
2.07667 -0.246743 1.09139 37 36 40
2.08926 -0.249446 1.11705 38 37 41
2.10957 -0.253102 1.14732 34 31 40
2.12259 -0.255915 1.17411 33 29 40
2.13627 -0.258834 1.2017 34 28 39
2.14191 -0.260802 1.22513 34 30 41
2.13962 -0.261819 1.24425 37 33 46
2.13812 -0.262942 1.26399 34 30 43
2.12797 -0.263007 1.2787 27 23 34
2.13316 -0.264978 1.30278 22 18 29
2.1153 -0.26409 1.31285 20 20 30
2.08907 -0.262143 1.31749 34 60 100
2.0714 -0.261253 1.32729 22 56 101
2.07721 -0.263332 1.35223 15 49 94
2.07455 -0.264351 1.37189 48 67 95
2.07181 -0.265371 1.39166 26 48 87
2.06983 -0.266497 1.41209 35 60 98
2.09072 -0.270595 1.44855 29 58 97
2.11293 -0.274908 1.48661 25 54 93
2.14374 -0.28039 1.53152 26 35 46
2.15879 -0.283857 1.5659 32 37 40
2.17438 -0.287432 1.60126 37 41 41
2.18091 -0.289841 1.63043 54 58 57
2.17851 -0.291081 1.65322 70 77 73
2.17602 -0.292322 1.67614 69 75 74
2.18289 -0.294839 1.70658 72 81 79
2.18096 -0.296188 1.73045 67 76 74
2.18749 -0.298707 1.76137 66 70 69
2.17602 -0.298781 1.77799 76 77 74
2.16454 -0.298854 1.79462 74 74 74
2.16227 -0.300205 1.81899 52 75 111
2.16905 -0.302834 1.85131 40 68 110
2.17639 -0.305571 1.88457 33 65 107
2.18352 -0.30831 1.91812 32 62 104
2.18145 -0.309771 1.94395 34 64 101
2.16957 -0.309847 1.96116 45 57 65
2.17625 -0.312588 1.99539 86 85 82
2.19305 -0.316824 2.03952 78 82 82
2.20073 -0.319781 2.07581 79 85 85
2.1987 -0.321353 2.10333 67 72 88
2.19583 -0.322819 2.13032 65 70 91
2.19357 -0.324393 2.15817 62 75 101
2.1912 -0.325967 2.18619 61 74 105
2.18871 -0.327542 2.21438 57 74 107
2.20669 -0.332216 2.26384 55 81 116
2.23631 -0.338708 2.32628 52 82 119
2.25491 -0.3436 2.37834 55 79 113
2.29756 -0.352236 2.45703 97 109 117
2.28409 -0.352322 2.47654 115 123 125
2.28165 -0.35412 2.50817 128 132 132
2.2462 -0.350783 2.50334 172 172 161
2.2328 -0.350869 2.52276 186 184 172
2.19774 -0.347529 2.51736 194 192 180
2.1737 -0.345901 2.52409 190 191 178
2.13977 -0.342666 2.51882 189 190 177
2.10675 -0.339537 2.51397 192 192 181
2.08389 -0.338012 2.52075 193 193 182
2.05131 -0.33488 2.51529 192 192 181
2.02875 -0.333354 2.52163 190 190 179
1.99789 -0.330433 2.51717 189 189 178
1.97563 -0.328905 2.52308 186 186 175
1.94517 -0.325982 2.51804 186 186 175
1.93275 -0.326061 2.53603 190 190 179
1.92033 -0.326141 2.55403 187 187 176
1.90791 -0.32622 2.57202 187 187 176
1.88676 -0.324797 2.57808 186 186 175
1.85767 -0.321976 2.57282 187 187 176
1.8288 -0.319154 2.56724 185 184 176
1.80076 -0.316438 2.56221 185 184 176
1.78872 -0.316515 2.57965 183 184 176
1.79237 -0.319387 2.62001 183 184 176
1.79641 -0.322368 2.66157 183 184 176
1.79249 -0.323952 2.69184 183 184 176
1.78018 -0.324031 2.70967 182 183 175
1.75202 -0.321204 2.70305 183 184 176
1.70136 -0.314179 2.66057 189 188 180
1.66743 -0.310164 2.64299 189 188 180
1.6344 -0.306255 2.62589 187 188 180
1.60908 -0.303744 2.62043 187 188 180
1.58452 -0.30134 2.61561 191 190 182
1.5596 -0.298827 2.60959 191 190 182
1.54212 -0.297713 2.61559 192 191 183
1.52418 -0.296492 2.62051 189 188 180
1.50689 -0.295378 2.62624 192 191 183
1.48969 -0.294263 2.63185 191 190 182
1.47854 -0.294334 2.648 191 188 178
1.46148 -0.293218 2.65341 193 190 180
1.4445 -0.292102 2.65869 192 189 179
1.42179 -0.289797 2.65297 191 188 178
1.39926 -0.287491 2.64698 189 186 176
1.37742 -0.285292 2.64174 189 186 176
1.35059 -0.282012 2.62618 188 184 177
1.32452 -0.278838 2.61127 191 187 180
1.28902 -0.273608 2.57666 188 184 177
1.24079 -0.265565 2.51485 182 182 171
1.20419 -0.259897 2.47481 172 171 163
1.1566 -0.251738 2.41031 163 161 155
1.12343 -0.246605 2.37409 100 86 88
1.09944 -0.243417 2.35615 50 39 33
1.09025 -0.243476 2.36947 57 46 35
1.08827 -0.245159 2.39868 63 48 40
1.09761 -0.249443 2.45363 61 48 42
1.11135 -0.254811 2.51976 63 47 42
1.09377 -0.253031 2.51538 67 52 44
1.06194 -0.247889 2.47721 67 53 43
1.03511 -0.243829 2.44936 72 56 46
1.01907 -0.242261 2.44626 74 60 50
1.01311 -0.243079 2.46719 71 53 43
1.00395 -0.243137 2.48046 73 55 43
0.985025 -0.240808 2.46924 78 62 52
0.932414 -0.23012 2.37163 75 61 51
0.868413 -0.216387 2.24136 75 61 51
0.830484 -0.208946 2.17515 75 61 51
0.810649 -0.205954 2.15472 75 61 51
0.798666 -0.204917 2.15452 75 61 51
0.784248 -0.203228 2.14732 75 61 51
0.783251 -0.205016 2.17686 78 64 54
0.786646 -0.208001 2.21935 78 64 54
0.794706 -0.212293 2.27615 78 64 54
0.795998 -0.214846 2.31466 78 64 54
0.79032 -0.21555 2.33342 78 64 54
0.782225 -0.215602 2.34515 78 64 54
0.771784 -0.215001 2.34975 78 64 54
0.763713 -0.215052 2.36144 78 64 54
0.757937 -0.215757 2.38034 71 57 47
0.752111 -0.216463 2.39932 71 57 47
0.746238 -0.217168 2.41836 71 57 47
0.746982 -0.219836 2.45943 71 57 47
0.747895 -0.222615 2.502 71 57 47
0.751139 -0.226157 2.55349 71 57 47
0.749467 -0.228284 2.58927 71 57 47
0.743391 -0.229102 2.61037 71 57 47
0.736908 -0.229812 2.63029 71 57 47
0.733143 -0.231395 2.66033 71 57 47
0.731314 -0.233634 2.6981 71 57 47
0.724931 -0.234454 2.71964 71 57 47
0.711487 -0.232981 2.71453 71 57 47
0.698487 -0.231617 2.71054 71 57 47
0.685267 -0.230142 2.70511 71 57 47
0.674733 -0.229542 2.70983 70 53 45
0.66615 -0.229596 2.72227 70 53 45
0.657568 -0.229651 2.7347 70 53 45
0.65084 -0.230363 2.75499 70 53 45
0.644368 -0.231184 2.77665 70 53 45
0.635733 -0.231239 2.78916 70 53 45
0.623239 -0.229871 2.78444 70 53 45
0.612608 -0.229159 2.78755 70 53 45
0.600303 -0.227791 2.78255 73 56 48
0.588103 -0.226421 2.7774 73 56 48
0.576011 -0.225051 2.77209 73 56 48
0.565958 -0.224447 2.77612 73 56 48
0.554049 -0.223075 2.77055 73 56 48
0.542514 -0.221813 2.76619 73 56 48
0.529493 -0.219891 2.75344 73 56 48
0.519739 -0.219286 2.75704 73 56 48
0.51157 -0.219338 2.76888 75 59 49
0.506422 -0.220707 2.7974 75 59 49
2.11075 -0.19088 -0.0314339 127 146 153
2.1098 -0.191478 -0.0212881 130 149 156
2.1076 -0.191967 -0.0110765 127 144 151
2.11143 -0.193009 -0.000819946 128 146 151
2.11639 -0.194163 0.00954856 132 147 153
2.12006 -0.195206 0.0200241 127 145 150
2.12367 -0.19625 0.0306062 128 145 152
2.12241 -0.196851 0.0412023 126 143 152
2.12588 -0.197896 0.0519737 128 142 152
2.11859 -0.197942 0.0625364 125 139 147
2.12313 -0.199099 0.0735086 128 143 149
2.1217 -0.199701 0.0843652 126 141 142
2.11435 -0.199748 0.0950167 126 137 141
2.07303 -0.196574 0.103965 126 140 143
1.99694 -0.190066 0.11063 122 135 141
1.91086 -0.182556 0.115961 117 131 134
1.84967 -0.177375 0.122093 117 126 125
1.82121 -0.175305 0.129977 125 122 119
1.80211 -0.174123 0.138342 137 126 120
1.79112 -0.173719 0.147237 127 119 103
1.78474 -0.17376 0.156486 99 93 86
1.78746 -0.174691 0.166583 85 86 73
1.78558 -0.175177 0.176326 81 79 73
1.78706 -0.175997 0.186471 85 83 77
1.7851 -0.176484 0.196328 79 78 75
1.78312 -0.176971 0.206231 78 77 74
1.77998 -0.177347 0.216047 78 77 74
1.78238 -0.17828 0.226605 79 78 75
1.78472 -0.179213 0.237259 78 77 74
1.78257 -0.179701 0.247394 75 75 75
1.7837 -0.180524 0.258054 72 76 75
1.79464 -0.182351 0.270285 68 68 68
1.79671 -0.183286 0.281335 67 67 67
1.80852 -0.185226 0.294074 61 65 64
1.82018 -0.187167 0.307015 58 62 62
1.82631 -0.18855 0.319212 59 64 67
1.82479 -0.189152 0.330187 55 64 68
1.82216 -0.189643 0.34102 51 64 70
1.8195 -0.190135 0.351901 47 64 71
1.82638 -0.191632 0.364743 43 61 78
1.83423 -0.193241 0.377957 28 54 81
1.84618 -0.195299 0.392236 29 61 93
1.85378 -0.19691 0.405806 20 54 91
1.86127 -0.198522 0.419541 12 43 82
1.85923 -0.199128 0.431262 13 42 81
1.86132 -0.200181 0.444035 15 46 85
1.85919 -0.200787 0.455898 14 46 88
1.86218 -0.201954 0.46912 16 48 92
1.86509 -0.203121 0.482461 17 52 95
1.8884 -0.206528 0.501358 16 51 94
1.91249 -0.210049 0.520888 7 39 69
1.93733 -0.213684 0.541068 25 51 73
1.94067 -0.214967 0.555546 36 59 75
1.95601 -0.217595 0.5737 26 37 41
1.96514 -0.219552 0.590317 14 20 20
1.97413 -0.22151 0.607136 25 31 31
1.978 -0.222908 0.62259 22 25 28
1.97583 -0.223633 0.63627 19 21 26
1.97953 -0.225032 0.651972 21 16 25
1.97724 -0.225758 0.66583 18 16 22
1.9749 -0.226484 0.679759 18 14 20
1.97835 -0.227885 0.695816 22 18 19
1.98851 -0.230072 0.714458 28 26 27
1.99851 -0.232261 0.733324 46 53 62
2.02183 -0.236024 0.757466 50 59 68
2.03243 -0.238327 0.777232 31 40 38
2.01708 -0.237595 0.787176 32 31 28
1.98943 -0.235401 0.792117 58 53 48
1.96858 -0.233993 0.799513 90 83 73
1.95442 -0.233373 0.809486 96 90 78
1.95158 -0.234102 0.824143 68 68 68
1.93747 -0.233481 0.834046 43 67 101
1.92899 -0.233535 0.846325 15 52 95
1.93811 -0.23573 0.866471 23 60 103
1.95445 -0.238826 0.890201 22 59 102
1.97057 -0.241924 0.91425 13 44 83
1.97458 -0.243558 0.933006 13 43 85
1.97212 -0.244403 0.948865 11 45 90
1.97594 -0.246039 0.967912 10 42 86
1.98685 -0.248577 0.99072 19 34 48
