ply
format ascii 1.0
comment pointcloud saved from PyCharm
element vertex 1321
property float32 x
property float32 y
property float32 z
property uchar blue
property uchar green
property uchar red
end_header
2.51687 1.23896 1.27088 85 114 126
2.52458 1.24911 1.296 92 119 131
2.50157 1.24409 1.30543 91 118 130
2.46855 1.23401 1.30938 85 116 128
2.43574 1.22393 1.31309 89 116 128
2.42316 1.22397 1.32753 89 113 126
2.42055 1.22906 1.34752 88 112 134
2.42774 1.23921 1.37323 91 113 126
2.44457 1.25442 1.40485 91 114 130
2.4718 1.27515 1.44306 88 116 131
2.47997 1.28623 1.47073 89 116 135
2.49763 1.30236 1.5045 85 113 128
2.52723 1.32493 1.54616 90 113 129
2.54677 1.34245 1.58239 92 117 136
2.55554 1.35445 1.61246 94 120 135
2.55285 1.36047 1.63563 96 121 138
2.52771 1.35453 1.64442 72 102 125
2.5027 1.34859 1.65306 74 103 122
2.47781 1.34265 1.66157 85 112 129
2.46402 1.34269 1.67741 87 112 131
2.47205 1.35469 1.70833 90 114 136
2.47984 1.36669 1.73953 83 113 136
2.49983 1.38559 1.77987 87 113 128
2.50788 1.39805 1.81232 85 112 129
2.5288 1.41787 1.85468 83 116 130
2.54932 1.4377 1.89751 89 114 131
2.58322 1.46535 1.95122 86 113 130
2.59236 1.47919 1.98704 87 112 129
2.61565 1.50132 2.03441 91 113 131
2.62573 1.51609 2.07224 89 111 129
2.64977 1.53914 2.12183 89 109 127
2.66074 1.55483 2.16173 83 110 129
2.67139 1.57052 2.202 81 109 124
2.66926 1.57885 2.23223 83 111 133
2.66697 1.58718 2.26265 77 109 127
2.67834 1.6038 2.30518 81 110 129
2.67563 1.61213 2.33609 82 107 126
2.6735 1.62092 2.36787 95 123 138
2.65686 1.62097 2.38697 107 129 142
2.64022 1.62101 2.40608 108 126 143
2.60942 1.61232 2.41211 109 127 144
2.56622 1.5958 2.40613 111 130 144
2.51013 1.57099 2.38717 110 127 148
2.45673 1.54756 2.36974 109 129 149
2.42851 1.53978 2.3759 111 128 147
2.40044 1.532 2.38188 107 130 146
2.37254 1.52422 2.38768 106 130 143
2.36899 1.53209 2.41799 110 131 154
2.34125 1.52431 2.42361 108 129 152
2.31437 1.51698 2.42977 113 135 153
2.28763 1.50966 2.43576 109 133 155
2.27214 1.50971 2.45355 112 135 151
2.25665 1.50975 2.47134 121 139 156
2.24116 1.5098 2.48913 119 136 155
2.22566 1.50984 2.50692 117 139 157
2.21017 1.50989 2.52471 120 143 159
2.18397 1.50256 2.53009 125 143 160
2.14729 1.48787 2.52281 124 139 158
2.10167 1.46673 2.50417 127 144 158
2.06696 1.45296 2.4977 130 148 160
2.02279 1.43228 2.47895 126 144 161
1.97129 1.40607 2.45008 124 144 164
1.94789 1.39966 2.45533 126 146 158
1.92462 1.39325 2.46043 122 142 154
1.90212 1.38731 2.4662 141 145 164
1.86219 1.36846 2.44875 145 148 164
1.83198 1.35653 2.4433 146 146 158
1.80202 1.34459 2.43756 103 110 126
1.78087 1.3391 2.44331 116 110 128
1.77443 1.34467 2.46923 150 143 152
1.76064 1.34471 2.48507 154 148 161
1.73967 1.33922 2.49063 154 149 165
1.72593 1.33926 2.5064 149 143 156
1.70454 1.33331 2.51089 140 134 147
1.68327 1.32736 2.51524 146 146 156
1.65575 1.31634 2.50979 131 133 143
1.63478 1.31039 2.5138 108 130 103
1.6145 1.3049 2.51855 133 145 135
1.59434 1.29941 2.52318 132 129 149
1.57428 1.29392 2.52768 151 146 150
1.56102 1.29396 2.54291 135 137 149
1.53507 1.2834 2.5372 141 142 157
1.50934 1.27284 2.53123 141 146 149
1.48383 1.26227 2.52501 133 146 120
1.47089 1.26231 2.53987 116 143 94
1.4521 1.25728 2.54447 112 142 91
1.4334 1.25225 2.54895 117 150 103
1.40906 1.24214 2.54293 134 157 141
1.37923 1.22697 2.52624 117 118 133
1.36665 1.227 2.54068 139 133 139
1.35408 1.22704 2.55512 130 128 134
1.34704 1.23215 2.58018 140 138 144
1.33991 1.23725 2.60536 135 143 145
1.33266 1.24236 2.63066 141 131 136
1.31993 1.2424 2.64528 140 151 164
1.29653 1.23229 2.63819 140 145 154
1.27381 1.22265 2.63185 137 143 150
1.25129 1.213 2.62528 133 140 149
1.23368 1.20797 2.62852 120 125 141
1.2213 1.208 2.64274 118 111 132
1.214 1.21311 2.66811 144 145 153
1.20157 1.21314 2.68238 154 150 156
1.17965 1.2035 2.67513 158 156 162
1.15837 1.19431 2.66868 169 173 178
1.13728 1.18512 2.66202 164 168 168
1.12076 1.18055 2.66555 164 168 168
1.10433 1.17597 2.66897 169 167 168
1.10085 1.18523 2.70385 165 162 171
1.09295 1.18987 2.72836 160 166 165
1.08076 1.18991 2.74236 154 166 176
1.06028 1.18072 2.73499 158 171 177
1.04 1.17153 2.72741 162 172 179
1.02031 1.1628 2.72068 158 169 173
1.0048 1.15868 2.7246 161 170 179
0.988974 1.1541 2.72732 162 168 175
0.970122 1.14584 2.72118 162 169 178
0.944111 1.1288 2.69392 152 168 171
0.915781 1.10854 2.65852 145 154 153
0.89163 1.09288 2.63376 182 185 177
0.874119 1.08507 2.62762 178 179 176
0.856768 1.07726 2.62129 186 179 180
0.845736 1.07729 2.63396 174 172 173
0.831844 1.07363 2.63756 169 168 172
0.820849 1.07367 2.65019 181 180 177
0.809854 1.0737 2.66281 187 186 190
0.796113 1.07004 2.66624 181 180 184
0.782448 1.06638 2.66958 182 180 180
0.766187 1.05903 2.66355 182 182 176
0.747774 1.04844 2.64918 172 169 166
0.731848 1.04109 2.64276 187 183 176
0.709361 1.02405 2.61146 166 166 166
0.689429 1.01023 2.58803 164 168 168
0.672571 1.00057 2.57496 164 168 168
0.658051 0.994138 2.57002 164 168 168
0.645768 0.990936 2.57332 164 168 168
0.631479 0.984504 2.56811 164 168 168
0.617613 0.978532 2.56396 164 168 168
0.607597 0.978561 2.57546 164 168 168
0.599553 0.981821 2.5955 164 168 168
0.591167 0.98462 2.6144 164 168 168
0.581088 0.984649 2.62597 164 168 168
0.572885 0.987909 2.6462 164 168 168
0.562773 0.987938 2.65781 164 168 168
0.550855 0.984736 2.66069 164 168 168
0.539255 0.981994 2.66474 164 168 168
0.525722 0.97556 2.65867 164 168 168
0.51403 0.972356 2.66128 164 168 168
0.50408 0.972385 2.67271 164 168 168
0.497414 0.978878 2.70198 164 168 168
0.485788 0.975675 2.70452 164 168 168
0.474228 0.972471 2.70699 164 168 168
0.464278 0.972499 2.71841 164 168 168
0.454327 0.972528 2.72984 164 168 168
0.443111 0.969786 2.73346 164 168 168
0.427825 0.957807 2.71086 164 168 168
0.415406 0.951832 2.70505 164 168 168
0.405668 0.951859 2.71624 164 168 168
0.397083 0.954658 2.73536 164 168 168
0.387316 0.954686 2.74657 164 168 168
0.37408 0.945939 2.73244 164 168 168
0.359955 0.934419 2.71006 164 168 168
0.34624 0.923361 2.68875 164 168 168
0.331741 0.90953 2.65908 164 168 168
0.318671 0.898932 2.63858 164 168 168
0.305023 0.886024 2.61102 164 168 168
0.29519 0.883741 2.61459 164 168 168
0.286899 0.886077 2.63183 164 168 168
0.278706 0.888874 2.6505 164 168 168
0.271157 0.893983 2.67615 164 168 168
0.263504 0.899091 2.70193 164 168 168
0.255877 0.904662 2.72921 164 168 168
0.247256 0.906999 2.74683 164 168 168
0.238709 0.909798 2.76591 164 168 168
0.230105 0.912597 2.78505 164 168 168
0.221444 0.915396 2.80426 164 168 168
0.211442 0.912651 2.80648 164 168 168
2.24359 0.826142 0.247045 102 118 135
2.25328 0.832943 0.259076 104 119 138
2.25673 0.837485 0.270539 104 118 135
2.27344 0.846997 0.283776 109 116 127
2.27786 0.851991 0.295673 94 113 141
2.2882 0.859245 0.3085 100 122 142
2.28521 0.86153 0.319658 103 123 135
2.28933 0.866525 0.331907 105 122 136
2.2874 0.869262 0.343384 98 116 133
2.28423 0.871547 0.354742 102 122 134
2.28219 0.874284 0.366343 99 124 135
2.2801 0.877022 0.37801 108 118 140
2.28379 0.882019 0.390742 105 119 136
2.28156 0.884756 0.402566 105 118 137
2.27811 0.887042 0.414244 103 118 137
2.27577 0.88978 0.426192 103 125 138
2.28028 0.89523 0.439537 103 124 133
2.27092 0.895257 0.450285 104 123 132
2.26841 0.897995 0.462429 102 119 128
2.25903 0.898022 0.473209 108 120 144
2.25643 0.900761 0.485451 101 118 139
2.26054 0.906212 0.499251 102 117 138
2.28475 0.919799 0.517762 104 123 132
2.31091 0.934291 0.537118 95 116 132
2.34457 0.951947 0.558678 99 119 137
2.36455 0.964181 0.577412 100 121 137
2.36992 0.970538 0.59285 99 115 132
2.35978 0.970568 0.604499 99 119 139
2.34963 0.970597 0.616147 92 122 137
2.32423 0.964296 0.623702 98 120 133
2.30764 0.961613 0.633487 94 118 126
2.2976 0.961642 0.645026 102 122 134
2.31658 0.973878 0.6649 100 115 134
2.33639 0.986568 0.685382 102 117 138
2.35699 0.99971 0.706486 100 114 131
2.36247 1.00652 0.723356 99 118 127
2.3604 1.01017 0.738076 97 115 132
2.35721 1.01337 0.752547 98 119 135
2.36233 1.02018 0.769823 98 119 135
2.38398 1.03423 0.792809 98 115 129
2.40638 1.04873 0.816483 100 117 138
2.42951 1.06369 0.840863 97 120 136
2.43588 1.07141 0.859793 97 119 137
2.42469 1.07144 0.872646 90 114 141
2.40433 1.0674 0.882134 97 122 141
2.38506 1.06381 0.891904 100 121 137
2.37395 1.06385 0.904665 101 122 138
2.37087 1.0675 0.920545 100 121 137
2.37672 1.07522 0.940072 100 122 135
2.38241 1.08294 0.959784 103 122 136
2.40576 1.09881 0.986994 104 122 139
2.42977 1.11513 1.015 102 121 135
2.44559 1.12783 1.04005 100 120 138
2.45236 1.13646 1.0616 94 120 135
2.45895 1.14509 1.08337 92 118 133
2.45569 1.14919 1.101 98 117 131
2.43503 1.14515 1.11083 101 119 136
2.4135 1.14066 1.12012 94 115 131
2.40159 1.1407 1.1338 94 118 131
2.39916 1.14526 1.15202 90 117 134
2.40512 1.15389 1.17451 87 114 133
2.43061 1.17203 1.20698 86 116 131
2.46599 1.19514 1.24508 85 115 125
2.48324 1.20966 1.27467 92 119 131
2.46045 1.20472 1.28386 91 118 130
2.42856 1.19525 1.28806 85 116 128
2.38772 1.18125 1.2871 89 116 128
2.37539 1.18129 1.30126 89 113 126
2.38207 1.19083 1.32601 88 112 134
2.39756 1.2049 1.35607 91 113 126
2.4244 1.22485 1.39317 90 113 129
2.45083 1.2448 1.43074 88 116 131
2.4795 1.26611 1.47037 89 116 135
2.48657 1.27656 1.49776 85 113 128
2.49429 1.28747 1.52594 90 113 129
2.52447 1.31014 1.56846 92 117 136
2.53249 1.3215 1.59785 94 120 135
2.52991 1.32742 1.62087 96 121 138
2.51606 1.32746 1.63678 72 102 125
2.49111 1.32162 1.64536 74 103 122
2.47732 1.32166 1.6612 85 112 129
2.4745 1.32758 1.6845 87 112 131
2.49338 1.34528 1.72303 90 114 136
2.50187 1.35755 1.75495 83 113 136
2.52173 1.37616 1.79544 87 113 128
2.54285 1.39567 1.83756 85 112 129
2.55126 1.40839 1.87113 83 116 130
2.5855 1.43561 1.92443 89 114 131
2.60701 1.45603 1.96919 86 113 130
2.63052 1.47781 2.01629 87 112 129
2.64075 1.49235 2.05394 91 113 131
2.63792 1.49964 2.08188 89 111 129
2.63574 1.50739 2.11062 89 109 127
2.6334 1.51513 2.13955 83 110 129
2.64421 1.53058 2.17963 81 109 124
2.64146 1.53832 2.20902 83 111 133
2.65248 1.55423 2.2504 77 109 127
2.67776 1.57873 2.30473 81 110 129
2.70329 1.6037 2.36031 82 107 126
2.70098 1.61235 2.39228 95 123 138
2.68417 1.6124 2.41159 107 129 142
2.65311 1.60384 2.41792 108 126 143
2.60883 1.58713 2.41166 109 127 144
2.56564 1.57086 2.40568 111 130 144
2.50955 1.54644 2.38673 110 127 148
2.48101 1.53879 2.39326 109 129 149
2.45262 1.53113 2.39962 111 128 147
2.4244 1.52347 2.40578 107 130 146
2.40851 1.52352 2.42402 106 130 143
2.38053 1.51586 2.42992 110 131 154
2.35271 1.5082 2.43562 108 129 152
2.31381 1.49329 2.42935 113 135 153
2.27592 1.47883 2.42346 109 133 155
2.24942 1.47162 2.42919 112 135 151
2.22307 1.46442 2.43475 119 137 154
2.20781 1.46446 2.45228 119 136 155
2.2034 1.47176 2.48204 117 139 157
2.19884 1.47905 2.51197 120 143 159
2.18342 1.4791 2.52967 125 143 160
2.15737 1.47189 2.53488 124 139 158
2.11102 1.45063 2.51555 127 144 158
2.05661 1.42347 2.48542 130 148 160
2.00406 1.39722 2.45623 126 144 161
1.96174 1.37777 2.43845 124 144 164
1.93008 1.36557 2.43313 126 146 158
1.90694 1.35926 2.43809 122 142 154
1.88457 1.35341 2.44371 141 145 164
1.85355 1.3412 2.43765 145 148 164
1.83149 1.33535 2.44292 146 146 158
1.80955 1.3295 2.44804 103 110 126
1.78773 1.32364 2.45302 116 110 128
1.77394 1.32368 2.46886 150 143 152
1.76015 1.32372 2.48469 154 148 161
1.74636 1.32376 2.50053 149 148 163
1.73257 1.3238 2.51637 149 141 154
1.71171 1.3184 2.52179 140 134 147
1.68279 1.30664 2.51487 146 146 156
1.66222 1.30124 2.51996 131 133 143
1.6343 1.28994 2.51343 108 130 103
1.61402 1.28454 2.51819 133 145 135
1.59386 1.27913 2.52282 132 129 149
1.58054 1.27917 2.53812 151 146 150
1.56721 1.27921 2.55342 135 137 149
1.54121 1.26881 2.54777 141 142 157
1.51489 1.25796 2.54095 141 146 149
1.48933 1.24757 2.5348 133 146 120
1.47634 1.2476 2.54972 116 143 94
1.45749 1.24265 2.55438 112 142 91
1.43295 1.23271 2.5486 117 150 103
1.40861 1.22276 2.54258 134 157 141
1.39018 1.21781 2.54677 117 118 133
1.3775 1.21784 2.56133 139 133 139
1.37041 1.22287 2.58645 130 128 134
1.36322 1.2279 2.61169 140 138 144
1.35043 1.22794 2.62637 135 143 145
1.33221 1.22298 2.63031 144 134 139
1.31948 1.22302 2.64493 136 147 160
1.30141 1.21806 2.6487 140 145 154
1.28345 1.21311 2.65235 137 143 150
1.27082 1.21314 2.66685 133 140 149
1.25301 1.20819 2.67032 120 125 141
1.23577 1.20368 2.67467 118 111 132
1.22324 1.20372 2.68906 144 145 153
1.20569 1.19876 2.69223 154 150 156
1.17921 1.18473 2.67479 158 156 162
1.15346 1.17115 2.65805 169 173 178
1.13242 1.1621 2.65133 164 168 168
1.12033 1.16214 2.66522 164 168 168
1.10823 1.16217 2.67911 169 167 168
1.10042 1.16675 2.70352 165 162 171
1.08828 1.16678 2.71746 160 166 165
1.06776 1.15774 2.71015 154 166 176
1.04784 1.14914 2.70368 158 171 177
1.02811 1.14055 2.69702 162 172 179
1.0122 1.13604 2.69985 158 169 173
0.996775 1.13199 2.70367 161 170 179
0.984996 1.13203 2.71719 162 168 175
0.962287 1.11934 2.70005 162 169 178
0.940227 1.10712 2.6837 152 168 171
0.9089 1.08354 2.6394 145 154 153
0.884835 1.06813 2.61455 182 185 177
0.870751 1.06453 2.61838 178 179 176
0.856375 1.06047 2.62099 186 179 180
0.848601 1.06459 2.64381 174 172 173
0.83431 1.06053 2.64633 169 168 172
0.823278 1.06057 2.659 181 180 177
0.809463 1.05696 2.66251 187 186 190
0.792978 1.04973 2.65674 181 180 184
0.779351 1.04613 2.66004 182 180 180
0.765801 1.04252 2.66325 182 182 176
0.749694 1.03529 2.65705 172 169 166
0.734062 1.0285 2.65184 187 183 176
0.716017 1.01808 2.63706 166 166 166
0.698503 1.00812 2.62321 164 168 168
0.683368 1.00134 2.61744 164 168 168
0.668375 0.99455 2.6115 164 168 168
0.655928 0.991399 2.61499 164 168 168
0.639405 0.981887 2.60154 164 168 168
0.625118 0.975555 2.59634 164 168 168
0.612969 0.972403 2.59948 164 168 168
0.60483 0.975613 2.61963 164 168 168
0.594685 0.975643 2.63128 164 168 168
0.584541 0.975672 2.64293 164 168 168
0.574397 0.975701 2.65458 164 168 168
0.562413 0.972549 2.65753 164 168 168
0.550495 0.969396 2.66041 164 168 168
0.538897 0.966699 2.66447 164 168 168
0.525366 0.960365 2.6584 164 168 168
0.513676 0.957212 2.66101 164 168 168
0.505399 0.960422 2.68132 164 168 168
0.497057 0.963632 2.70171 164 168 168
0.485432 0.960479 2.70425 164 168 168
0.473874 0.957326 2.70672 164 168 168
0.463923 0.957355 2.71814 164 168 168
0.453973 0.957383 2.72957 164 168 168
0.442757 0.954684 2.73318 164 168 168
0.428713 0.94562 2.71844 164 168 168
0.417677 0.942921 2.72185 164 168 168
0.409057 0.945677 2.74101 164 168 168
0.400574 0.948888 2.76156 164 168 168
0.388279 0.943005 2.75561 164 168 168
0.373735 0.931211 2.73217 164 168 168
0.358548 0.917143 2.70176 164 168 168
0.344865 0.906257 2.68042 164 168 168
0.330399 0.892642 2.65073 164 168 168
0.317525 0.882665 2.63155 164 168 168
0.306447 0.877234 2.62575 164 168 168
0.298259 0.879989 2.64441 164 168 168
0.290012 0.882744 2.66314 164 168 168
0.281565 0.885044 2.68056 164 168 168
0.271671 0.882796 2.6842 164 168 168
0.263176 0.885097 2.70167 164 168 168
0.254764 0.887853 2.72059 164 168 168
0.246925 0.892882 2.74658 164 168 168
0.238377 0.895638 2.76565 164 168 168
0.229772 0.898394 2.7848 164 168 168
0.22111 0.901151 2.804 164 168 168
0.211109 0.898448 2.80623 164 168 168
2.23101 0.808545 0.245461 102 118 135
2.23464 0.813015 0.256733 104 119 138
2.23817 0.817485 0.268114 104 118 135
2.24766 0.824178 0.280359 106 113 129
2.25822 0.831316 0.292924 94 113 141
2.26864 0.838454 0.305663 100 122 142
2.27171 0.842926 0.31757 103 123 135
2.27588 0.847842 0.329758 104 121 135
2.274 0.850535 0.341174 98 116 133
2.26496 0.850561 0.351553 102 122 134
2.26182 0.852811 0.362878 99 124 135
2.26567 0.857728 0.375424 108 118 140
2.2706 0.86309 0.38829 105 119 136
2.27424 0.868008 0.401081 105 118 137
2.27778 0.872926 0.413991 103 118 137
2.27544 0.875621 0.425939 103 125 138
2.27995 0.880984 0.439282 103 124 133
2.27747 0.883679 0.451393 104 123 132
2.26808 0.883706 0.462173 102 119 128
2.26551 0.886402 0.474381 108 120 144
2.26289 0.889098 0.486655 101 118 139
2.26021 0.891793 0.498993 102 117 138
2.27094 0.899827 0.514449 104 123 132
2.29603 0.913644 0.533475 95 116 132
2.31527 0.925237 0.551513 99 119 137
2.34202 0.939945 0.571726 100 121 137
2.35411 0.948871 0.58871 98 114 131
2.35941 0.955128 0.604223 99 119 139
2.35693 0.958271 0.617879 92 122 137
2.33913 0.955186 0.627519 98 120 133
2.3138 0.948987 0.634999 94 118 126
2.29724 0.946346 0.644753 102 122 134
2.30117 0.952159 0.660304 100 115 134
2.32853 0.967762 0.682903 102 117 138
2.3417 0.97758 0.70173 100 114 131
2.34617 0.98384 0.718197 99 118 127
2.34418 0.98743 0.732834 97 115 132
2.34106 0.990575 0.747223 96 117 133
2.33892 0.994165 0.762029 98 119 135
2.35963 1.00755 0.784545 98 115 129
2.38939 1.02493 0.810554 100 117 138
2.41156 1.03921 0.834485 94 120 135
2.418 1.0468 0.85332 97 119 137
2.40689 1.04684 0.866081 90 114 141
2.38763 1.04331 0.875852 97 122 141
2.36743 1.03933 0.885157 100 121 137
2.3564 1.03937 0.897825 101 122 138
2.36244 1.04696 0.917122 100 121 137
2.37632 1.05813 0.939767 100 122 135
2.39096 1.06973 0.963083 103 122 136
2.40535 1.08134 0.986682 104 122 139
2.40275 1.08538 1.00356 102 121 135
2.40888 1.09343 1.0243 97 120 136
2.41485 1.10147 1.04523 94 120 135
2.41287 1.10596 1.06293 92 118 133
2.40983 1.11 1.08031 98 117 131
2.39806 1.11003 1.09383 101 119 136
2.40446 1.11853 1.1158 94 115 131
2.40117 1.12257 1.13347 94 118 131
2.40726 1.13106 1.15579 90 117 134
2.40469 1.13555 1.17418 87 114 133
2.41141 1.14449 1.19733 86 116 131
2.41794 1.15344 1.2207 85 115 125
2.42428 1.16238 1.24429 92 119 131
2.41195 1.16241 1.25845 89 118 130
2.39042 1.15799 1.26773 84 115 127
2.35984 1.14912 1.27198 89 116 128
2.35675 1.15361 1.29096 89 113 126
2.37167 1.16701 1.32013 88 112 134
2.40702 1.19065 1.36133 91 113 126
2.4338 1.21029 1.39848 90 113 129
2.45037 1.22503 1.43039 88 116 131
2.4684 1.24066 1.4637 89 116 135
2.46582 1.24604 1.48518 85 113 128
2.47277 1.25632 1.5127 90 113 129
2.49172 1.27285 1.54804 91 116 135
2.51031 1.28937 1.58379 94 120 135
2.52942 1.30634 1.6205 96 121 138
2.51557 1.30638 1.6364 72 102 125
2.50171 1.30642 1.65231 74 103 122
2.50992 1.31804 1.68301 85 112 129
2.5297 1.33591 1.72203 87 112 131
2.53819 1.34798 1.75395 90 114 136
2.54726 1.3605 1.78675 83 113 136
2.56851 1.3797 1.82871 87 113 128
2.5778 1.39267 1.8628 85 112 129
2.58764 1.40608 1.8978 83 116 130
2.62166 1.43287 1.95133 89 114 131
2.64538 1.4543 1.99817 86 113 130
2.68236 1.48332 2.05603 87 112 129
2.68025 1.49094 2.08468 91 113 131
2.65091 1.48341 2.09214 89 111 129
2.62172 1.47588 2.09941 89 109 127
2.59348 1.46879 2.10715 82 109 128
2.60373 1.48354 2.1463 83 111 126
2.61445 1.49875 2.18647 83 111 133
2.6519 1.52955 2.24996 77 109 127
2.691 1.5617 2.31618 81 110 129
2.7172 1.58671 2.37252 82 107 126
2.71556 1.59568 2.40527 96 125 137
2.68357 1.58681 2.41113 107 129 142
2.65252 1.57839 2.41747 108 126 143
2.60824 1.56194 2.41121 109 127 144
2.56506 1.54593 2.40524 111 130 144
2.50898 1.5219 2.38629 110 127 148
2.48044 1.51436 2.39283 109 129 149
2.46439 1.51441 2.41125 111 128 147
2.44835 1.51446 2.42968 107 130 146
2.42012 1.50692 2.43585 106 130 143
2.39206 1.49939 2.44183 110 131 154
2.35215 1.48427 2.43519 108 129 152
2.30202 1.46246 2.41713 113 135 153
2.25306 1.44109 2.39927 109 133 155
2.20593 1.42062 2.38239 112 135 151
2.18057 1.41397 2.38837 119 137 154
2.16559 1.41402 2.40557 118 135 154
2.16079 1.42075 2.43423 115 137 155
2.16595 1.43418 2.4746 120 143 159
2.17217 1.4485 2.51685 125 143 160
2.15683 1.44854 2.53447 124 139 158
2.10059 1.42092 2.50335 127 144 158
2.05608 1.40089 2.48502 130 148 160
2.00354 1.37506 2.45584 126 144 161
1.97026 1.36216 2.44929 124 144 164
1.9379 1.34971 2.44324 126 146 158
1.91534 1.34395 2.44908 122 142 154
1.88407 1.33194 2.44332 141 145 164
1.86996 1.33198 2.45952 145 148 164
1.84715 1.32577 2.4641 146 146 158
1.83312 1.32581 2.48022 103 110 126
1.80316 1.31425 2.47449 116 110 128
1.77345 1.30269 2.46848 150 143 152
1.75966 1.30273 2.48432 154 148 161
1.74587 1.30277 2.50016 149 148 163
1.72495 1.29745 2.50565 149 141 154
1.70357 1.29169 2.51014 138 134 145
1.6823 1.28593 2.5145 143 143 153
1.66174 1.28061 2.51959 132 129 138
1.64129 1.27529 2.52455 111 132 107
1.62038 1.26953 2.5285 133 145 135
1.60017 1.26421 2.53319 132 129 149
1.58006 1.25889 2.53776 151 146 150
1.56674 1.25893 2.55306 135 137 149
1.5468 1.25361 2.55743 141 142 157
1.52097 1.24338 2.55159 141 146 149
1.49536 1.23315 2.5455 133 146 120
1.46407 1.21801 2.52897 116 143 94
1.43947 1.20822 2.52325 112 142 91
1.42089 1.20334 2.52762 117 150 103
1.40816 1.20338 2.54224 134 157 141
1.40112 1.20833 2.5673 117 118 133
1.39962 1.21819 2.60297 139 133 139
1.39232 1.22314 2.62832 130 128 134
1.37938 1.22318 2.64318 140 138 144
1.36644 1.22321 2.65804 135 143 145
1.34806 1.21834 2.66217 144 134 139
1.32441 1.20855 2.65538 136 147 160
1.30629 1.20367 2.65921 139 144 153
1.29884 1.20862 2.68474 137 143 150
1.28082 1.20375 2.68845 133 140 149
1.25774 1.19396 2.68101 120 125 141
1.22554 1.17523 2.65315 122 115 136
1.20804 1.17035 2.65628 144 145 153
1.1911 1.16592 2.6603 154 150 156
1.16973 1.15702 2.65396 158 156 162
1.15303 1.15259 2.65771 169 173 178
1.13641 1.14816 2.66136 164 168 168
1.12427 1.14819 2.6753 164 168 168
1.1078 1.14376 2.67878 169 167 168
1.09999 1.14826 2.70318 165 162 171
1.07938 1.13936 2.69598 160 166 165
1.05938 1.13091 2.68963 154 166 176
1.03542 1.11798 2.67238 158 171 177
1.01623 1.10997 2.66663 162 172 179
1.00045 1.10554 2.66932 158 169 173
0.977971 1.09351 2.65347 161 170 179
0.96641 1.09354 2.66674 162 168 175
0.951336 1.08955 2.67016 162 169 178
0.929794 1.07797 2.65477 152 168 171
0.905072 1.06236 2.62914 145 154 153
0.884439 1.05121 2.61425 182 185 177
0.873327 1.05125 2.62701 178 179 176
0.859281 1.0477 2.63079 186 179 180
0.851101 1.05131 2.65253 174 172 173
0.837131 1.04777 2.65623 169 168 172
0.822884 1.04378 2.6587 181 180 177
0.809071 1.04023 2.66221 187 186 190
0.792588 1.03311 2.65645 181 180 184
0.778963 1.02956 2.65974 182 180 180
0.765414 1.02602 2.66296 182 182 176
0.75194 1.02247 2.66608 172 169 166
0.741135 1.0225 2.67849 187 183 176
0.730329 1.02254 2.6909 166 166 166
0.719523 1.02257 2.7033 164 168 168
0.704069 1.01589 2.6979 164 168 168
0.688452 1.00877 2.69114 164 168 168
0.671183 0.99896 2.67702 164 168 168
0.656192 0.992283 2.67108 164 168 168
0.641343 0.985605 2.66498 164 168 168
0.628925 0.982505 2.66844 164 168 168
0.616293 0.978957 2.6706 164 168 168
0.604012 0.975856 2.6739 164 168 168
0.589894 0.969624 2.6685 164 168 168
0.575906 0.963392 2.66296 164 168 168
0.563891 0.960291 2.66595 164 168 168
0.551942 0.957189 2.66887 164 168 168
0.538539 0.951403 2.66419 164 168 168
0.52501 0.94517 2.65812 164 168 168
0.513321 0.942067 2.66074 164 168 168
0.505043 0.945227 2.68105 164 168 168
0.4967 0.948387 2.70143 164 168 168
0.486683 0.948416 2.71294 164 168 168
0.475093 0.945313 2.71544 164 168 168
0.465109 0.945342 2.7269 164 168 168
0.453618 0.942239 2.7293 164 168 168
0.442403 0.939583 2.73292 164 168 168
0.43104 0.936479 2.73516 164 168 168
0.418535 0.930691 2.72946 164 168 168
0.408707 0.930719 2.74074 164 168 168
0.398879 0.930747 2.75203 164 168 168
0.38662 0.924958 2.74604 164 168 168
0.372296 0.913799 2.72391 164 168 168
0.358208 0.902639 2.7015 164 168 168
0.344529 0.891925 2.68017 164 168 168
0.332086 0.883897 2.66668 164 168 168
0.319976 0.876315 2.65435 164 168 168
0.310725 0.876342 2.66497 164 168 168
0.302244 0.878606 2.68242 164 168 168
0.293864 0.881318 2.70131 164 168 168
0.283694 0.878659 2.70372 164 168 168
0.272881 0.873762 2.69916 164 168 168
0.263658 0.873789 2.70975 164 168 168
0.254436 0.873815 2.72034 164 168 168
0.245967 0.876528 2.73933 164 168 168
0.23732 0.878793 2.75697 164 168 168
0.228742 0.881506 2.77608 164 168 168
0.21877 0.878846 2.77827 164 168 168
0.208321 0.873948 2.77329 164 168 168
2.22458 0.793277 0.244552 102 118 135
2.22211 0.795489 0.255095 104 119 138
2.22569 0.799887 0.266421 104 118 135
2.23523 0.806472 0.27861 106 113 129
2.23859 0.81087 0.290179 96 115 143
2.24907 0.817894 0.302829 100 122 142
2.25222 0.822293 0.314648 103 123 135
2.2505 0.824943 0.325884 104 121 135
2.24158 0.824968 0.336116 100 118 135
2.23859 0.827181 0.347267 102 122 134
2.24852 0.834206 0.360551 99 124 135
2.25948 0.841669 0.374204 108 118 140
2.27612 0.851319 0.38904 105 119 136
2.2809 0.856595 0.402062 105 118 137
2.28441 0.861435 0.415003 103 118 137
2.28204 0.864086 0.426983 103 125 138
2.28652 0.869363 0.440357 103 124 133
2.28401 0.872016 0.4525 104 123 132
2.28144 0.874668 0.464707 105 122 131
2.272 0.874695 0.475552 108 120 144
2.27613 0.879973 0.489318 101 118 139
2.27339 0.882626 0.50172 102 117 138
2.27733 0.887905 0.515713 104 123 132
2.28227 0.893622 0.530096 98 119 135
2.30045 0.90459 0.5478 99 119 137
2.31285 0.913371 0.564423 100 121 137
2.32395 0.921715 0.580987 98 114 131
2.34367 0.933561 0.600008 99 119 139
2.35657 0.942781 0.617602 92 122 137
2.35402 0.945875 0.631333 98 120 133
2.33621 0.94284 0.640974 94 118 126
2.31848 0.939805 0.650539 102 122 134
2.31586 0.942899 0.664346 100 115 134
2.32816 0.952121 0.682623 102 117 138
2.3328 0.958279 0.698893 100 114 131
2.33837 0.964875 0.715639 99 118 127
2.33536 0.96797 0.729908 97 115 132
2.33332 0.971503 0.744587 96 117 133
2.33016 0.974597 0.759013 98 119 135
2.34361 0.984698 0.779057 98 115 129
2.37241 1.00137 0.804629 100 117 138
2.37812 1.0084 0.822752 94 120 135
2.39191 1.01894 0.843951 95 115 133
2.37273 1.01547 0.853631 90 114 141
2.35363 1.012 0.863224 97 122 141
2.34271 1.01203 0.875762 100 121 137
2.34793 1.01907 0.89445 101 122 138
2.36204 1.03005 0.91682 100 121 137
2.37592 1.04103 0.93946 100 122 135
2.3816 1.04851 0.959168 103 122 136
2.3792 1.05248 0.975811 104 122 139
2.36785 1.05252 0.988848 102 121 135
2.37316 1.06 1.00897 97 120 136
2.36173 1.06003 1.0221 91 117 132
2.36778 1.06795 1.04293 91 117 132
2.36496 1.07192 1.06006 98 117 131
2.36205 1.0759 1.07728 101 119 136
2.36767 1.08382 1.0986 94 115 131
2.39217 1.1005 1.1291 94 118 131
2.40683 1.1128 1.15547 89 116 133
2.41369 1.1216 1.17845 87 114 133
2.4016 1.12163 1.19234 86 116 131
2.3895 1.12167 1.20623 85 115 125
2.3774 1.1217 1.22012 92 119 131
2.37455 1.12612 1.23883 89 118 130
2.36241 1.12615 1.25277 84 115 127
2.35941 1.13057 1.27164 87 114 126
2.38361 1.14813 1.30557 89 113 126
2.40924 1.16657 1.34095 88 112 134
2.43628 1.18589 1.37779 91 113 126
2.4629 1.20521 1.41511 90 113 129
2.4704 1.21533 1.44199 88 116 131
2.46793 1.22063 1.46334 89 116 135
2.45477 1.22067 1.47845 85 113 128
2.46177 1.23078 1.5059 90 113 129
2.46943 1.24134 1.53413 91 116 135
2.49855 1.26286 1.57631 90 115 132
2.54014 1.29095 1.6273 96 121 138
2.53738 1.29669 1.65053 72 102 125
2.55752 1.31427 1.68912 74 103 122
2.57814 1.33228 1.7287 85 112 129
2.5874 1.3446 1.76127 87 112 131
2.59724 1.35736 1.79472 90 114 136
2.59429 1.36354 1.81971 83 113 136
2.59204 1.37015 1.84544 87 113 128
2.60201 1.38335 1.88027 85 112 129
2.61171 1.39655 1.91543 83 116 130
2.63416 1.41676 1.96063 88 113 130
2.67077 1.44487 2.01734 86 113 130
2.70919 1.4743 2.0766 87 112 129
2.72055 1.48925 2.11602 91 113 131
2.69096 1.48184 2.12376 89 111 129
2.63462 1.45952 2.10977 89 109 127
2.58034 1.43808 2.09649 82 109 128
2.58988 1.45216 2.13491 83 111 126
2.61388 1.47457 2.18604 83 111 133
2.66523 1.51277 2.26132 77 109 127
2.705 1.54484 2.32829 81 110 129
2.7166 1.56112 2.37206 82 107 126
2.69979 1.56117 2.39137 96 125 137
2.68297 1.56122 2.41068 106 128 141
2.65192 1.55293 2.41701 109 127 144
2.60765 1.53675 2.41076 108 126 143
2.55116 1.5131 2.3923 111 130 144
2.5084 1.49736 2.38585 110 127 148
2.47986 1.48994 2.39239 109 129 149
2.46382 1.48999 2.41082 111 128 147
2.44777 1.49004 2.42924 107 130 146
2.43173 1.49008 2.44766 106 130 143
2.3915 1.47521 2.4414 110 131 154
2.33957 1.45288 2.42233 108 129 152
2.29024 1.43186 2.40491 113 135 153
2.2309 1.40426 2.37584 109 133 155
2.17424 1.37797 2.34833 112 135 151
2.14909 1.37143 2.35407 119 137 154
2.14457 1.37805 2.3824 118 135 154
2.16025 1.39785 2.43382 115 137 155
2.17618 1.41808 2.4865 120 143 159
2.17162 1.42515 2.51643 125 143 160
2.15628 1.42519 2.53405 124 139 158
2.10006 1.39802 2.50294 127 144 158
2.04573 1.37173 2.47275 130 148 160
1.99327 1.34631 2.44349 126 144 161
1.96071 1.33406 2.43767 124 144 164
1.92906 1.32225 2.43235 126 146 158
1.89767 1.31043 2.42674 122 142 154
1.87473 1.30433 2.43148 141 145 164
1.86069 1.30437 2.4476 145 148 164
1.85536 1.31056 2.47533 146 146 158
1.83262 1.30445 2.47984 103 110 126
1.81062 1.29878 2.48503 116 110 128
1.78085 1.28741 2.4791 150 143 152
1.75917 1.28174 2.48394 154 148 161
1.74537 1.28178 2.49978 149 148 163
1.71675 1.27084 2.49407 149 141 154
1.70308 1.27088 2.50977 138 134 145
1.68182 1.26521 2.51413 143 143 153
1.6682 1.26525 2.52976 132 129 138
1.6477 1.26002 2.53479 111 132 107
1.62731 1.25478 2.53969 132 137 140
1.59969 1.24384 2.53283 130 127 147
1.57959 1.23861 2.53739 149 147 148
1.5596 1.23338 2.54183 135 137 149
1.54027 1.22859 2.54705 141 142 157
1.52051 1.22335 2.55123 141 146 149
1.4884 1.20802 2.53409 133 146 120
1.45771 1.19356 2.51842 116 143 94
1.43317 1.18393 2.51265 112 142 91
1.42044 1.18396 2.52727 117 150 103
1.41345 1.18883 2.55227 134 157 141
1.41205 1.19854 2.58782 117 118 133
1.4166 1.21351 2.63505 139 133 139
1.41524 1.22365 2.67211 130 128 134
1.40208 1.22369 2.68722 140 138 144
1.38293 1.21846 2.69068 135 143 145
1.35847 1.20839 2.68328 144 134 139
1.32933 1.19393 2.66583 136 147 160
1.30583 1.18429 2.65886 139 144 153
1.28782 1.1795 2.66257 137 143 150
1.27514 1.17953 2.67713 130 137 146
1.25211 1.1699 2.66963 121 126 142
1.2251 1.15631 2.65282 122 115 136
1.20299 1.14712 2.6458 147 148 156
1.18153 1.13836 2.63958 154 150 156
1.16027 1.12961 2.63314 158 156 162
1.14812 1.12964 2.64708 168 172 177
1.1404 1.13407 2.67138 165 169 169
1.12384 1.12971 2.67497 162 166 166
1.10737 1.12535 2.67845 169 167 168
1.091 1.12099 2.68182 165 162 171
1.07091 1.11267 2.67557 160 166 165
1.04682 1.09996 2.65849 156 168 178
1.02341 1.08768 2.64216 159 172 178
1.00068 1.07584 2.6266 162 172 179
0.978207 1.06401 2.61075 158 169 173
0.963577 1.06052 2.6152 163 172 181
0.952181 1.06055 2.62829 164 170 177
0.940784 1.06059 2.64137 162 169 178
0.92592 1.05666 2.64455 152 168 171
0.904671 1.04526 2.62884 147 156 155
0.88705 1.03782 2.62284 182 185 177
0.8759 1.03785 2.63564 178 179 176
0.861817 1.03436 2.63947 186 179 180
0.850705 1.0344 2.65223 174 172 173
0.833524 1.02695 2.64573 169 168 172
0.816855 1.01995 2.64018 181 180 177
0.803118 1.01646 2.64361 187 186 190
0.792199 1.01649 2.65615 181 180 184
0.778575 1.013 2.65945 182 180 180
0.765028 1.00952 2.66266 182 182 176
0.754184 1.00955 2.67511 172 169 166
0.745932 1.0131 2.69693 187 183 176
0.737604 1.01665 2.71884 166 166 166
0.726685 1.01668 2.73138 164 168 168
0.715766 1.01671 2.74391 164 168 168
0.697527 1.00618 2.72783 164 168 168
0.679814 0.996094 2.71268 164 168 168
0.664684 0.989525 2.7069 164 168 168
0.649696 0.982956 2.70097 164 168 168
0.636852 0.979466 2.70338 164 168 168
0.624365 0.976416 2.70691 164 168 168
0.611668 0.972926 2.70915 164 168 168
0.595239 0.963275 2.69407 164 168 168
0.579284 0.954063 2.67998 164 168 168
0.563529 0.944851 2.66567 164 168 168
0.551581 0.9418 2.66859 164 168 168
0.536409 0.933027 2.65515 164 168 168
0.522917 0.926894 2.64905 164 168 168
0.511504 0.924282 2.65289 164 168 168
0.503016 0.926951 2.6719 164 168 168
0.496343 0.933142 2.70116 164 168 168
0.489308 0.938893 2.7293 164 168 168
0.477882 0.936281 2.73316 164 168 168
0.467833 0.936309 2.7447 164 168 168
0.456276 0.933257 2.74717 164 168 168
0.443313 0.927123 2.74045 164 168 168
0.430687 0.921428 2.73489 164 168 168
0.419592 0.918815 2.73837 164 168 168
0.407179 0.91312 2.73257 164 168 168
0.394888 0.907424 2.72662 164 168 168
0.3816 0.899087 2.71256 164 168 168
0.368491 0.890748 2.6983 164 168 168
0.357868 0.888134 2.70124 164 168 168
0.346266 0.882877 2.69605 164 168 168
0.335784 0.880262 2.69882 164 168 168
0.324381 0.875005 2.6934 164 168 168
0.314993 0.875032 2.70418 164 168 168
0.305604 0.875059 2.71496 164 168 168
0.296216 0.875086 2.72574 164 168 168
0.285096 0.869828 2.72 164 168 168
0.274089 0.86457 2.71412 164 168 168
0.26414 0.862394 2.71783 164 168 168
0.254888 0.862421 2.72845 164 168 168
0.245637 0.862448 2.73908 164 168 168
0.236386 0.862474 2.7497 164 168 168
0.227135 0.8625 2.76032 164 168 168
0.216548 0.857241 2.75396 164 168 168
0.205542 0.849779 2.74037 164 168 168
2.22427 0.780233 0.244319 102 118 135
2.22181 0.782408 0.254861 104 119 138
2.22538 0.786734 0.266185 104 118 135
2.2228 0.78891 0.276863 106 113 129
2.22621 0.793236 0.288377 96 115 143
2.22952 0.797563 0.299999 100 122 142
2.23274 0.80189 0.31173 103 123 135
2.22393 0.801915 0.321843 104 121 135
2.21512 0.801941 0.331956 100 118 135
2.21934 0.806699 0.344087 102 122 134
2.23523 0.81576 0.358227 99 124 135
2.25211 0.825251 0.37279 108 118 140
2.27579 0.837325 0.38879 105 119 136
2.2864 0.844667 0.402836 102 115 134
2.29104 0.849857 0.416014 103 118 137
2.28864 0.852466 0.428025 103 125 138
2.28619 0.855075 0.440102 103 124 133
2.28367 0.857684 0.452243 104 123 132
2.2811 0.860293 0.46445 105 122 131
2.2853 0.865485 0.478148 108 120 144
2.28937 0.870677 0.491977 101 118 139
2.28658 0.873287 0.504444 102 117 138
2.28372 0.875897 0.516976 104 123 132
2.28193 0.878937 0.529833 98 119 135
2.28564 0.88413 0.54409 99 119 137
2.29034 0.889754 0.558748 100 121 137
2.30926 0.900974 0.577132 98 114 131
2.33672 0.915639 0.598047 99 119 139
2.36386 0.930305 0.61933 92 122 137
2.37652 0.939375 0.637187 98 120 133
2.36621 0.939405 0.649025 94 118 126
2.3559 0.939434 0.660863 102 122 134
2.34559 0.939464 0.672701 100 115 134
2.33529 0.939494 0.684539 101 114 135
2.33243 0.942537 0.698611 100 114 131
2.33058 0.946012 0.713084 99 118 127
2.33498 0.95207 0.729623 97 115 132
2.33295 0.955545 0.744302 96 117 133
2.34549 0.965049 0.763839 98 119 135
2.35886 0.974985 0.783962 98 115 129
2.36372 0.981475 0.80152 100 117 138
2.36948 0.988397 0.819599 94 120 135
2.37508 0.995319 0.837851 95 115 133
2.35597 0.991905 0.847445 92 116 143
2.35324 0.995382 0.862927 97 122 141
2.35043 0.998859 0.878495 100 121 137
2.36469 1.00966 0.900683 101 122 138
2.37872 1.02046 0.923141 100 121 137
2.37552 1.02394 0.939155 100 122 135
2.36429 1.02397 0.952051 104 123 137
2.35306 1.024 0.964947 104 122 139
2.34183 1.02404 0.977843 102 121 135
2.3306 1.02407 0.990739 97 120 136
2.33595 1.03142 1.01081 91 117 132
2.33338 1.03533 1.02765 91 117 132
2.33845 1.04269 1.04805 101 119 136
2.33567 1.0466 1.06512 101 119 136
2.35003 1.05827 1.09029 94 115 131
2.35557 1.06606 1.1117 94 118 131
2.37988 1.08247 1.14241 89 116 133
2.38592 1.09069 1.16478 87 114 133
2.39178 1.09891 1.18736 86 116 131
2.37974 1.09895 1.20119 85 115 125
2.37697 1.10329 1.21979 92 119 131
2.38335 1.11195 1.24332 89 118 130
2.38954 1.1206 1.26706 84 115 127
2.4056 1.134 1.29644 87 114 126
2.41227 1.14308 1.32118 89 113 126
2.43865 1.16166 1.35722 88 112 134
2.44572 1.17118 1.38304 91 113 126
2.45259 1.1807 1.4091 90 113 129
2.46013 1.19065 1.43592 89 117 132
2.46746 1.2006 1.46298 89 116 135
2.4543 1.20064 1.47809 85 113 128
2.45166 1.20585 1.49964 90 113 129
2.46896 1.22098 1.53377 91 116 135
2.49806 1.24214 1.57594 90 115 132
2.52843 1.26417 1.61974 96 121 138
2.54803 1.28103 1.6574 72 102 125
2.58005 1.30435 1.70394 74 103 122
2.60138 1.3225 1.74424 85 112 129
2.62315 1.34109 1.78557 87 112 131
2.62104 1.3476 1.81113 90 114 136
2.61879 1.35411 1.83686 83 113 136
2.62883 1.36709 1.87161 87 113 128
2.62622 1.3736 1.89774 85 112 129
2.62347 1.38011 1.92404 83 116 130
2.64666 1.40043 1.96992 88 113 130
2.67022 1.42118 2.01692 86 113 130
2.69493 1.44279 2.06567 87 112 129
2.71997 1.46483 2.11559 91 113 131
2.70393 1.46488 2.13401 89 111 129
2.66097 1.45026 2.13089 89 109 127
2.63171 1.44297 2.13826 82 109 128
2.6292 1.45035 2.16737 83 111 126
2.63975 1.46506 2.20771 81 109 131
2.66465 1.48797 2.26088 77 109 127
2.68982 1.51132 2.31528 81 110 129
2.68777 1.51956 2.34695 82 107 126
2.67112 1.51961 2.36605 96 125 137
2.65448 1.51966 2.38516 106 128 141
2.63784 1.5197 2.40427 109 127 144
2.60706 1.51155 2.4103 108 126 143
2.55058 1.4883 2.39186 108 130 143
2.50783 1.47281 2.38541 112 129 150
2.46688 1.45819 2.37998 109 129 147
2.45092 1.45823 2.39831 111 128 147
2.43495 1.45828 2.41664 107 130 146
2.43115 1.46566 2.44723 106 130 143
2.41511 1.46571 2.46565 110 131 154
2.37505 1.45108 2.45921 108 129 152
2.31215 1.4222 2.42807 113 135 153
2.25197 1.39462 2.39844 109 133 155
2.19448 1.36834 2.37036 112 135 151
2.15887 1.35543 2.36496 119 137 154
2.16452 1.36842 2.40476 118 135 154
2.18006 1.38789 2.45633 115 137 155
2.17564 1.39484 2.48609 120 143 159
2.16037 1.39489 2.50362 126 144 161
2.12453 1.38155 2.49696 125 140 159
2.07974 1.36216 2.47896 127 144 158
2.02622 1.33673 2.4494 130 148 160
1.98366 1.31821 2.43194 126 144 161
1.95117 1.30616 2.42605 124 144 164
1.91959 1.29454 2.42066 125 145 157
1.88827 1.28292 2.41498 122 142 154
1.85783 1.27174 2.40982 142 146 165
1.83577 1.26616 2.41509 144 147 163
1.83 1.27182 2.44178 146 146 158
1.81608 1.27186 2.45776 103 110 126
1.79421 1.26628 2.46282 116 110 128
1.77247 1.26071 2.46773 150 143 152
1.75867 1.26075 2.48357 154 148 161
1.74488 1.26079 2.4994 149 148 163
1.71626 1.25003 2.4937 149 141 154
1.69494 1.24445 2.49813 138 134 145
1.68133 1.24449 2.51376 143 143 153
1.66772 1.24453 2.52939 132 129 138
1.64722 1.23938 2.53442 111 132 107
1.62683 1.23424 2.53932 132 137 140
1.60599 1.22866 2.54319 130 127 147
1.57911 1.21833 2.53703 149 147 148
1.55912 1.21319 2.54147 133 137 151
1.53319 1.20329 2.53576 141 143 155
1.50748 1.19339 2.5298 139 148 147
1.47604 1.17873 2.51346 130 145 112
1.45135 1.16926 2.50787 116 143 94
1.43272 1.16455 2.5123 113 143 92
1.41998 1.16458 2.52692 115 147 102
1.41874 1.17413 2.56229 134 157 141
1.41728 1.18367 2.5979 117 118 133
1.41613 1.19365 2.6347 139 133 139
1.40308 1.19369 2.64968 130 128 134
1.39003 1.19372 2.66467 140 138 144
1.371 1.18858 2.66801 135 143 145
1.34714 1.1791 2.66147 144 134 139
1.31811 1.16488 2.64389 136 147 160
1.30005 1.16016 2.64766 139 144 153
1.28737 1.1602 2.66222 137 143 150
1.27991 1.16499 2.68776 130 137 146
1.25684 1.15551 2.68032 121 126 142
1.23443 1.14647 2.67365 122 115 136
1.21223 1.13743 2.66675 147 148 156
1.18566 1.12406 2.64944 154 150 156
1.16886 1.11977 2.6533 158 156 162
1.15662 1.11981 2.66735 168 172 177
1.13997 1.11552 2.67105 165 169 169
1.12341 1.11123 2.67464 162 166 166
1.10262 1.10262 2.66766 168 166 167
1.08244 1.09444 2.66151 166 163 172
1.06245 1.08626 2.65516 163 169 168
1.03887 1.07418 2.63904 156 168 178
1.01555 1.06211 2.62262 159 172 178
0.992912 1.05046 2.60697 162 172 179
0.974567 1.04314 2.60181 158 169 173
0.959577 1.03928 2.60513 163 172 181
0.951775 1.04321 2.62798 164 170 177
0.940378 1.04324 2.64106 163 170 179
0.925516 1.03938 2.64425 150 166 169
0.907694 1.03206 2.63848 147 156 155
0.890034 1.02474 2.63254 182 185 177
0.878841 1.02477 2.64539 173 174 171
0.864352 1.02091 2.64814 187 180 181
0.847416 1.01402 2.64291 171 169 170
0.821713 0.996317 2.60917 171 170 174
0.808015 0.992887 2.61256 184 183 180
0.797171 0.992918 2.62501 186 185 189
0.789069 0.99641 2.64666 180 179 183
0.778188 0.996442 2.65915 183 181 181
0.764641 0.993012 2.66237 180 180 174
0.756425 0.996504 2.68414 172 169 166
0.748134 0.999997 2.706 187 183 176
0.737215 1.00003 2.71854 166 166 166
0.726296 1.00006 2.73108 164 168 168
0.7129 0.996629 2.73412 164 168 168
0.69958 0.993199 2.73707 164 168 168
0.681834 0.983276 2.72197 164 168 168
0.668737 0.979844 2.72467 164 168 168
0.655714 0.976412 2.72728 164 168 168
0.643054 0.973413 2.73102 164 168 168
0.630178 0.969981 2.73346 164 168 168
0.615442 0.963519 2.72724 164 168 168
0.598946 0.954026 2.71225 164 168 168
0.580789 0.941503 2.68836 164 168 168
0.565004 0.932442 2.67409 164 168 168
0.553024 0.929441 2.67705 164 168 168
0.536052 0.917781 2.65488 164 168 168
0.521073 0.909151 2.64123 164 168 168
0.511151 0.90918 2.65262 164 168 168
0.502661 0.911806 2.67163 164 168 168
0.497623 0.920927 2.70981 164 168 168
0.488949 0.923554 2.72902 164 168 168
0.478871 0.923583 2.7406 164 168 168
0.467474 0.921014 2.74442 164 168 168
0.455919 0.918012 2.74689 164 168 168
0.444431 0.915009 2.74929 164 168 168
0.433007 0.912006 2.75161 164 168 168
0.420446 0.906405 2.74598 164 168 168
0.405456 0.895174 2.72308 164 168 168
0.392053 0.886973 2.70916 164 168 168
0.378829 0.878772 2.69503 164 168 168
0.36815 0.876201 2.69804 164 168 168
0.358592 0.876228 2.70901 164 168 168
0.349034 0.876256 2.71999 164 168 168
0.338469 0.873684 2.72287 164 168 168
0.32796 0.871112 2.72568 164 168 168
0.317508 0.868541 2.72842 164 168 168
0.307113 0.865969 2.7311 164 168 168
0.297668 0.865996 2.74195 164 168 168
0.286493 0.860824 2.73627 164 168 168
0.275431 0.855652 2.73046 164 168 168
0.265292 0.85308 2.73285 164 168 168
0.255208 0.850507 2.73517 164 168 168
0.245933 0.850533 2.74582 164 168 168
0.236056 0.848394 2.74945 164 168 168
0.226109 0.84582 2.75161 164 168 168
0.215665 0.84108 2.74664 164 168 168
0.205855 0.838507 2.74864 164 168 168
2.23009 0.769302 0.244758 104 120 137
2.23371 0.773556 0.256027 104 119 138
2.22507 0.773581 0.26595 104 118 135
2.22249 0.775721 0.276627 106 113 129
2.21986 0.777861 0.287358 96 115 143
2.22319 0.782116 0.298952 100 120 138
2.22045 0.784256 0.309819 103 123 135
2.21169 0.784281 0.319878 104 121 135
2.20887 0.786421 0.330826 100 118 135
2.2131 0.7911 0.342929 102 122 134
2.22902 0.80001 0.357039 99 124 135
2.25179 0.811458 0.372543 108 118 140
2.26962 0.821216 0.387541 105 119 136
2.28024 0.828435 0.401558 102 115 134
2.28375 0.833116 0.414497 103 118 137
2.27445 0.833142 0.425179 103 125 138
2.27205 0.835708 0.43719 103 124 133
2.27646 0.840813 0.450626 104 123 132
2.28077 0.845918 0.464193 105 122 131
2.29177 0.853562 0.479315 108 120 144
2.29582 0.858668 0.493175 101 118 139
2.293 0.861235 0.505674 102 117 138
2.29124 0.864225 0.518492 104 123 132
2.28159 0.864253 0.52957 98 119 135
2.27194 0.86428 0.540649 98 119 135
2.27559 0.869388 0.55497 100 121 137
2.28794 0.877881 0.571626 98 114 131
2.32098 0.894417 0.593838 99 119 139
2.34819 0.908839 0.615041 87 117 132
2.37616 0.923684 0.636906 98 120 133
2.37344 0.926677 0.650826 94 118 126
2.36309 0.926707 0.662702 102 122 134
2.35275 0.926736 0.674577 100 115 134
2.34241 0.926766 0.686453 101 114 135
2.34059 0.930183 0.700882 100 114 131
2.34506 0.93614 0.717343 99 118 127
2.35045 0.942522 0.734287 97 115 132
2.3557 0.948903 0.751393 96 117 133
2.36918 0.958673 0.771388 98 119 135
2.38244 0.968443 0.791632 98 115 129
2.38823 0.97525 0.809665 100 117 138
2.38561 0.978669 0.825015 94 120 135
2.38291 0.982088 0.840453 95 115 133
2.38013 0.985508 0.855977 92 116 143
2.38645 0.992739 0.874947 97 122 141
2.40071 1.00336 0.897131 100 121 137
2.40666 1.01059 0.916514 101 122 138
2.39539 1.01062 0.929459 100 121 137
2.37512 1.00684 0.938849 100 122 135
2.34698 0.999676 0.944938 104 123 137
2.32791 0.996319 0.954495 103 121 138
2.3168 0.996351 0.967255 102 121 135
2.32235 1.00359 0.987099 97 120 136
2.33555 1.01421 1.0105 91 117 132
2.34948 1.02526 1.03461 91 117 132
2.34674 1.0291 1.05163 101 119 136
2.34392 1.03295 1.06876 100 118 135
2.35823 1.04442 1.09397 94 115 131
2.36467 1.05251 1.11588 94 118 131
2.36998 1.06017 1.13754 89 116 133
2.36759 1.06444 1.15571 87 114 133
2.38198 1.07634 1.18237 83 113 128
2.39797 1.08908 1.21028 85 115 125
2.42296 1.10607 1.24328 92 119 131
2.44942 1.12391 1.27767 89 118 130
2.45618 1.13284 1.30229 84 115 127
2.45361 1.13754 1.32221 87 114 126
2.45093 1.14224 1.34225 89 113 126
2.44815 1.14694 1.36241 88 112 134
2.43537 1.14697 1.37709 91 113 126
2.42258 1.14701 1.39178 90 113 129
2.42939 1.15637 1.41789 89 117 132
2.44662 1.17082 1.45055 89 116 135
2.45383 1.18061 1.47774 85 113 128
2.47135 1.19549 1.51161 90 113 129
2.47894 1.2057 1.5399 91 116 135
2.49758 1.22142 1.57557 90 115 132
2.51673 1.23757 1.61218 95 120 139
2.53638 1.25415 1.64977 72 102 125
2.55651 1.27115 1.68835 74 103 122
2.57712 1.28857 1.72792 85 112 129
2.59902 1.30685 1.76909 87 112 131
2.62052 1.32512 1.81073 94 118 140
2.63077 1.33789 1.84523 83 113 136
2.64073 1.35065 1.88005 87 113 128
2.63805 1.35706 1.90627 85 112 129
2.63522 1.36346 1.93265 83 116 130
2.64611 1.37708 1.9695 88 113 130
2.64373 1.38391 1.99691 86 113 130
2.66698 1.40431 2.04425 87 112 129
2.67856 1.41878 2.08339 91 113 131
2.68982 1.43324 2.1229 89 111 129
2.68731 1.4405 2.152 89 109 127
2.68464 1.44776 2.18129 82 109 128
2.68259 1.45544 2.21141 83 111 126
2.69435 1.47076 2.25342 81 109 131
2.69187 1.47844 2.28403 77 109 127
2.68923 1.48613 2.31483 81 110 129
2.65894 1.47854 2.32184 82 107 126
2.64248 1.47858 2.34075 96 125 137
2.61245 1.47099 2.34747 106 128 141
2.59607 1.47104 2.36628 109 127 144
2.57969 1.47109 2.38509 108 126 143
2.53669 1.45586 2.37894 108 130 143
2.50725 1.44827 2.38497 112 129 150
2.46631 1.43389 2.37955 109 129 147
2.45035 1.43393 2.39788 111 129 146
2.43438 1.43398 2.41621 107 130 146
2.44275 1.44845 2.45904 106 130 143
2.43942 1.45614 2.49062 110 131 154
2.42321 1.45619 2.50924 108 129 152
2.38245 1.44138 2.50206 113 135 153
2.31902 1.41256 2.47002 109 133 155
2.25831 1.38502 2.43948 112 135 151
2.2099 1.36469 2.42104 119 137 154
2.20563 1.37152 2.45061 118 135 154
2.20121 1.37836 2.48037 115 137 155
2.18587 1.3784 2.49798 120 143 159
2.14913 1.36486 2.49081 126 144 161
2.10408 1.3458 2.47314 125 140 159
2.04956 1.32037 2.4432 127 144 158
1.99757 1.29621 2.41499 130 148 160
1.96496 1.28436 2.40925 126 144 161
1.94228 1.27889 2.41524 124 144 164
1.91909 1.27298 2.42028 125 145 157
1.88777 1.26156 2.4146 122 142 154
1.85733 1.25056 2.40945 142 146 165
1.83528 1.24508 2.41472 144 147 163
1.82142 1.24512 2.43062 143 143 155
1.80757 1.24516 2.44653 103 110 126
1.78577 1.23968 2.45152 116 110 128
1.77197 1.23972 2.46736 150 143 152
1.75818 1.23976 2.48319 154 148 161
1.74439 1.23979 2.49903 149 148 163
1.72348 1.23474 2.50453 149 141 154
1.7021 1.22926 2.50903 138 134 145
1.68843 1.22929 2.52473 143 143 153
1.65334 1.21362 2.50795 132 129 138
1.63238 1.20813 2.51197 111 132 107
1.61895 1.20817 2.5274 132 137 140
1.60551 1.20821 2.54283 130 127 147
1.58535 1.20315 2.54746 149 147 148
1.55255 1.18832 2.53115 133 137 151
1.52007 1.17349 2.51446 141 143 155
1.48847 1.15908 2.49831 139 148 147
1.46963 1.15444 2.50298 130 145 112
1.45089 1.1498 2.50753 116 143 94
1.43811 1.14984 2.52221 113 143 92
1.43112 1.15455 2.5472 115 147 102
1.42976 1.16394 2.58269 134 157 141
1.42251 1.16865 2.60798 117 118 133
1.40952 1.16869 2.6229 139 133 139
1.39652 1.16873 2.63782 130 128 134
1.37246 1.15941 2.63152 140 138 144
1.33764 1.14075 2.60363 135 143 145
1.3141 1.13143 2.59673 144 134 139
1.28099 1.11362 2.56998 136 147 160
1.27394 1.11833 2.59504 139 144 153
1.27637 1.13154 2.64006 137 143 150
1.27946 1.14561 2.68741 130 137 146
1.27707 1.155 2.72409 121 126 142
1.26423 1.15503 2.73883 122 115 136
1.23619 1.14104 2.72013 147 148 156
1.21348 1.13172 2.71227 154 150 156
1.18196 1.1139 2.68369 158 156 162
1.15619 1.10118 2.66701 168 172 177
1.13512 1.09272 2.66036 165 169 169
1.1186 1.0885 2.6639 162 166 166
1.09786 1.08003 2.65687 168 166 167
1.07774 1.07198 2.65067 166 163 172
1.0578 1.06394 2.64427 163 169 168
1.03845 1.05632 2.63872 156 168 178
1.01886 1.04827 2.63191 159 172 178
0.99618 1.03682 2.61631 162 172 179
0.981027 1.03303 2.61983 158 169 173
0.973143 1.03689 2.64276 163 172 181
0.965173 1.04075 2.6658 164 170 177
0.953612 1.04078 2.67907 163 170 179
0.931655 1.02933 2.66264 150 166 169
0.910334 1.01831 2.64702 147 156 155
0.889635 1.0077 2.63223 182 185 177
0.878442 1.00774 2.64509 173 174 171
0.863954 1.00394 2.64784 187 180 181
0.843769 0.993337 2.63246 171 169 170
0.818472 0.976352 2.59981 171 170 174
0.801998 0.969576 2.59405 184 183 180
0.794008 0.97301 2.61557 186 185 189
0.788681 0.979849 2.64636 180 179 183
0.777799 0.97988 2.65886 183 181 181
0.766918 0.979912 2.67135 180 180 174
0.756037 0.979943 2.68384 171 168 165
0.747745 0.983378 2.7057 185 181 174
0.736825 0.98341 2.71824 166 166 166
