ply
format ascii 1.0
comment pointcloud saved from PyCharm
element vertex 1359
property float32 x
property float32 y
property float32 z
property uchar blue
property uchar green
property uchar red
end_header
1.90706 -0.790652 0.959168 11 19 21
1.90764 -0.795338 0.974558 8 14 14
1.91373 -0.802389 0.99299 10 15 18
1.9271 -0.812594 1.01554 9 16 25
1.93369 -0.820038 1.03485 8 17 26
1.94655 -0.83024 1.05786 5 14 25
1.95453 -0.83847 1.07858 0 11 15
1.95498 -0.843546 1.09541 18 23 26
1.9689 -0.854534 1.12012 31 35 34
1.97621 -0.862761 1.14144 20 26 25
1.99766 -0.877293 1.17138 3 8 4
2.02673 -0.895371 1.20646 1 5 4
2.0562 -0.91384 1.24251 3 3 3
2.07987 -0.929943 1.27577 1 6 2
2.07507 -0.933435 1.29196 2 6 5
2.05451 -0.929835 1.29835 1 5 4
2.0202 -0.919932 1.29576 3 7 6
1.97326 -0.904121 1.28454 6 10 10
1.9276 -0.888705 1.27351 19 36 55
1.90954 -0.885896 1.28032 2 25 54
1.90336 -0.888602 1.29509 0 19 42
1.90465 -0.894852 1.31515 0 21 44
1.90493 -0.900708 1.33477 8 43 86
1.91251 -0.910108 1.35983 21 60 103
1.92722 -0.92305 1.39046 2 25 49
1.94158 -0.935991 1.42141 1 16 42
1.94991 -0.946174 1.44845 3 19 43
1.97246 -0.963443 1.48668 4 21 42
1.99615 -0.981498 1.52656 40 48 50
2.02013 -0.999944 1.56749 64 65 62
2.05388 -1.02351 1.61695 44 47 50
2.07208 -1.03958 1.65508 43 48 51
2.08282 -1.05212 1.68793 47 50 53
2.09399 -1.06505 1.72171 44 48 48
2.09636 -1.07364 1.74876 41 41 42
2.09849 -1.08224 1.77602 41 41 41
2.09281 -1.0869 1.79698 45 44 41
2.08624 -1.09116 1.8174 22 20 20
2.07134 -1.0911 1.83067 15 19 19
2.04828 -1.08671 1.83662 13 18 21
2.02461 -1.08193 1.84179 18 36 53
2.02664 -1.09091 1.87046 13 33 58
2.03713 -1.10462 1.90751 2 22 42
2.05733 -1.12383 1.95446 6 23 37
2.08629 -1.14815 2.01084 13 20 31
2.11742 -1.17404 2.07058 20 24 24
2.15911 -1.20622 2.14214 22 26 25
2.18315 -1.22896 2.1976 27 28 25
2.19755 -1.24659 2.2444 31 31 25
2.19084 -1.25241 2.27026 29 29 23
2.17372 -1.25234 2.2855 26 25 22
2.14645 -1.24637 2.2899 26 25 22
2.11934 -1.2404 2.29416 24 25 22
2.09239 -1.23443 2.29827 15 30 44
2.07552 -1.23436 2.31329 13 28 49
2.05865 -1.23429 2.32831 7 26 54
2.05153 -1.24011 2.35453 17 43 70
2.04425 -1.24594 2.38089 14 28 38
2.01763 -1.23997 2.38472 36 33 30
1.97214 -1.22221 2.36558 115 109 97
1.93782 -1.21114 2.35903 127 118 105
1.91191 -1.20517 2.36222 124 116 100
1.80397 -1.14695 2.26219 121 116 99
1.12357 -0.720584 1.4301 120 114 100
1.11068 -0.718578 1.43495 64 53 42
1.09784 -0.716572 1.43976 43 29 17
1.08804 -0.71653 1.44848 43 32 19
1.07529 -0.714525 1.45321 40 29 16
1.06844 -0.716447 1.46593 38 29 18
1.06154 -0.718369 1.4787 38 29 18
1.05459 -0.720291 1.49152 38 29 18
1.04189 -0.718286 1.4962 39 30 19
1.02924 -0.716281 1.50084 39 30 17
1.01664 -0.714276 1.50542 39 28 15
0.998565 -0.708345 1.50164 39 30 19
0.98065 -0.702414 1.49771 39 30 19
0.971037 -0.702373 1.50627 38 29 18
0.961424 -0.702332 1.51483 41 32 21
0.951811 -0.702292 1.52339 39 30 19
0.939565 -0.700288 1.52767 41 32 19
0.927894 -0.698678 1.53276 38 29 16
0.91317 -0.694712 1.53261 39 30 19
0.896512 -0.689177 1.52889 44 33 22
0.877984 -0.682073 1.52153 44 33 22
0.861648 -0.676539 1.51752 46 35 24
0.850406 -0.67493 1.52223 47 33 21
0.843121 -0.676461 1.53402 47 36 23
0.83821 -0.679952 1.55032 47 36 23
0.828898 -0.679913 1.55861 48 37 24
0.817694 -0.678304 1.56328 48 37 24
0.806066 -0.676303 1.56701 47 36 23
0.796803 -0.676264 1.57525 47 36 23
0.787539 -0.676225 1.5835 48 37 26
0.77647 -0.674616 1.58806 48 39 28
0.764998 -0.672616 1.59164 48 39 28
0.754019 -0.671008 1.59612 45 36 25
0.743085 -0.669401 1.60055 44 37 27
0.731762 -0.667401 1.60401 44 38 31
0.720919 -0.665794 1.60836 42 36 29
0.708022 -0.662226 1.60791 39 34 29
0.693981 -0.657483 1.60451 45 40 35
0.68497 -0.657445 1.61254 43 41 35
0.673944 -0.655447 1.61573 43 41 35
0.670129 -0.660505 1.63635 42 39 36
0.666176 -0.665562 1.6571 43 41 35
0.662082 -0.670618 1.67797 42 40 34
0.656323 -0.674106 1.69502 45 42 39
0.648586 -0.675635 1.70721 38 35 32
0.639322 -0.675596 1.71546 34 31 28
0.623846 -0.668895 1.70671 30 27 24
0.611432 -0.665329 1.70584 31 28 25
0.60089 -0.663723 1.70992 27 27 21
0.590041 -0.661726 1.71295 27 27 21
0.573742 -0.65346 1.69964 31 30 27
0.556314 -0.643629 1.68202 33 32 29
0.543487 -0.638891 1.67754 35 33 27
0.532101 -0.63572 1.67708 39 34 29
0.52596 -0.638816 1.69314 38 36 30
0.523855 -0.647004 1.72285 49 47 41
0.529318 -0.664981 1.77894 48 41 36
0.561859 -0.7182 1.9302 31 32 24
0.59986 -0.780419 2.10707 29 29 23
0.628763 -0.832843 2.25892 27 27 21
0.62517 -0.843366 2.2979 22 22 16
0.625846 -0.860151 2.35428 13 13 7
0.628574 -0.880459 2.42076 26 24 18
0.631292 -0.901547 2.4899 49 45 45
0.627517 -0.91402 2.53567 61 62 54
0.619447 -0.920621 2.56538 59 62 54
0.606809 -0.920567 2.57664 48 52 51
0.598466 -0.927167 2.60659 55 56 53
0.585736 -0.927113 2.61793 60 61 53
0.573007 -0.927059 2.62926 79 75 63
0.560278 -0.927005 2.64059 55 46 47
0.549398 -0.930081 2.66088 35 31 31
0.540463 -0.936679 2.69136 63 61 61
0.529583 -0.940145 2.71298 88 88 77
0.516671 -0.94009 2.72447 96 94 82
0.501872 -0.936515 2.72572 99 95 83
0.489008 -0.93646 2.73717 105 98 88
0.474554 -0.933277 2.73944 102 98 86
0.458443 -0.926573 2.73126 102 97 87
0.44402 -0.922999 2.73217 99 94 84
0.428415 -0.916688 2.72486 99 95 88
0.41582 -0.916634 2.73607 99 95 88
0.403225 -0.916581 2.74729 94 91 88
0.391963 -0.919656 2.76791 95 93 93
0.379325 -0.919602 2.77917 93 92 84
0.366687 -0.919548 2.79042 98 97 89
0.355253 -0.922622 2.8112 96 97 89
0.341411 -0.919441 2.81292 96 97 89
0.327655 -0.91626 2.81457 96 97 89
0.310624 -0.903308 2.786 96 97 89
0.292142 -0.884885 2.74017 96 97 89
0.275278 -0.869982 2.70482 96 97 89
0.258112 -0.852736 2.6618 96 97 89
0.244016 -0.84448 2.64652 96 97 89
0.230145 -0.836225 2.63104 95 94 86
0.184753 -0.838764 2.68073 95 94 86
0.171038 -0.828167 2.65716 95 94 86
0.156634 -0.812494 2.61697 95 94 86
0.142311 -0.79487 2.57009 95 94 86
0.131376 -0.794824 2.57983 95 94 86
0.123519 -0.815086 2.65573 94 92 86
0.114457 -0.83066 2.71681 94 92 86
0.10269 -0.827877 2.71801 94 92 86
0.0904369 -0.820019 2.70241 94 92 86
0.0783992 -0.812162 2.68663 94 92 86
0.0666086 -0.804696 2.67194 94 92 86
0.0551838 -0.799574 2.66489 94 92 86
0.0440498 -0.797185 2.66685 94 92 86
0.0329645 -0.794406 2.66744 94 92 86
0.0220297 -0.794359 2.67718 97 95 89
0.0110626 -0.791971 2.67899 97 95 89
0.000160196 -0.791925 2.6887 97 95 89
-0.0108115 -0.796952 2.71569 97 95 89
-0.0217836 -0.796905 2.72546 97 95 89
-0.0328521 -0.7992 2.74327 97 95 89
-0.0439854 -0.801495 2.76113 97 95 89
-0.0553701 -0.80652 2.78849 97 95 89
-0.0668949 -0.811545 2.81598 97 95 89
-0.0783339 -0.814229 2.83544 92 90 84
-0.0892481 -0.811451 2.83588 92 90 84
-0.0997965 -0.806332 2.82805 92 90 84
-0.110903 -0.806285 2.83794 92 90 84
-0.121242 -0.801167 2.82991 92 90 84
-0.131055 -0.793709 2.81347 92 90 84
-0.141153 -0.788983 2.80656 92 90 84
-0.151122 -0.784257 2.79953 92 90 84
-0.161927 -0.784211 2.80915 95 93 87
-0.172733 -0.784165 2.81877 95 93 87
-0.185181 -0.791138 2.85371 95 93 87
1.7069 -0.576061 0.376331 6 24 54
1.70753 -0.578846 0.385051 6 25 53
1.70689 -0.581228 0.393565 6 25 53
1.70972 -0.584818 0.402969 6 28 55
1.71363 -0.588809 0.412741 7 28 64
1.72442 -0.595215 0.424331 5 27 61
1.76754 -0.612888 0.44424 3 30 63
1.81827 -0.633375 0.466646 6 33 66
1.85811 -0.650239 0.486829 8 16 43
1.86659 -0.656237 0.49915 6 11 20
1.85783 -0.6562 0.506952 6 11 14
1.8536 -0.657772 0.516017 7 11 11
1.84933 -0.659344 0.52512 13 19 19
1.85063 -0.662927 0.535888 20 28 30
1.85071 -0.666108 0.546411 25 36 35
1.85516 -0.670896 0.55835 37 49 51
1.86059 -0.676087 0.570744 36 47 51
1.86037 -0.679266 0.58154 44 54 56
1.86115 -0.682847 0.592762 50 61 60
1.86621 -0.688036 0.605485 59 63 62
1.87113 -0.693224 0.618333 57 62 58
1.86726 -0.695195 0.628398 53 55 49
1.86227 -0.696764 0.638142 54 56 50
1.86258 -0.700343 0.649789 41 45 45
1.86386 -0.704323 0.661901 41 46 42
1.86926 -0.709911 0.675638 40 46 46
1.87873 -0.717106 0.691059 40 48 50
1.88486 -0.723094 0.705476 44 53 57
1.89083 -0.729082 0.720036 37 45 52
1.90182 -0.737079 0.736748 22 31 35
1.9126 -0.745074 0.753652 14 18 23
1.92419 -0.753471 0.771159 16 23 27
1.93045 -0.759857 0.786785 23 31 33
1.93146 -0.764234 0.800461 26 35 34
1.92124 -0.764191 0.80956 23 31 33
1.91102 -0.764147 0.818659 35 41 40
1.8948 -0.761693 0.825147 38 44 44
1.86871 -0.755223 0.827177 28 34 34
1.84279 -0.748753 0.829054 21 30 41
1.81802 -0.742685 0.831228 27 55 90
1.80809 -0.742643 0.840073 4 32 67
1.80302 -0.744609 0.851215 4 33 66
1.8182 -0.755008 0.872145 2 31 64
1.85041 -0.772635 0.901761 4 31 62
1.88885 -0.79307 0.935113 6 20 37
1.91247 -0.807481 0.961778 7 15 22
1.91302 -0.812253 0.977195 9 17 24
1.92565 -0.822244 0.999069 8 15 26
1.93896 -0.832635 1.02167 5 14 23
1.94547 -0.840215 1.04105 2 9 18
1.95271 -0.848196 1.0611 32 41 40
1.95422 -0.853767 1.07831 27 33 33
1.96106 -0.861746 1.09872 11 17 16
1.96859 -0.870125 1.11984 14 19 15
1.98312 -0.881714 1.14533 6 10 9
2.00451 -0.896512 1.1753 9 13 12
2.03264 -0.914519 1.20988 3 7 6
2.05586 -0.930517 1.24221 1 5 4
2.05749 -0.936884 1.26195 1 5 4
2.05283 -0.940442 1.27803 0 5 1
2.01848 -0.930359 1.27549 4 5 2
1.98525 -0.920678 1.27327 2 6 5
1.95315 -0.911399 1.27138 3 7 6
1.92129 -0.902122 1.26926 21 34 53
1.90921 -0.90207 1.28002 0 22 49
1.89712 -0.902019 1.29078 0 9 28
1.89091 -0.904775 1.30559 0 12 24
1.89794 -0.913947 1.32981 6 37 76
1.91217 -0.926728 1.35953 20 62 104
1.92688 -0.939907 1.39016 0 20 47
1.9347 -0.949878 1.41632 2 19 40
1.94956 -0.963456 1.44814 3 18 39
1.96485 -0.977433 1.4809 5 20 41
1.98858 -0.995819 1.52072 24 31 40
2.0126 -1.0146 1.5616 36 42 42
2.0377 -1.03419 1.60418 36 42 42
2.05522 -1.05016 1.64158 42 47 50
2.07386 -1.06693 1.68063 42 47 50
2.08509 -1.0801 1.71436 43 48 51
2.08751 -1.08885 1.74135 35 39 39
2.0813 -1.0932 1.76145 18 18 19
2.08331 -1.10195 1.78882 16 16 17
2.07756 -1.1067 1.80983 16 16 17
2.05376 -1.10183 1.81513 15 18 21
2.03083 -1.09736 1.82097 13 16 19
2.01611 -1.0973 1.83407 16 36 56
2.0182 -1.10645 1.86269 11 31 56
2.03672 -1.12481 1.90714 3 20 39
2.06555 -1.14918 1.9623 8 22 39
2.10444 -1.17956 2.02837 14 21 32
2.14536 -1.21153 2.09794 23 23 23
2.18893 -1.2455 2.17177 26 26 26
2.21412 -1.26946 2.22883 28 27 24
2.21788 -1.2814 2.26523 36 34 28
2.20069 -1.28133 2.28054 36 34 28
2.18349 -1.28125 2.29585 24 25 22
2.1663 -1.28118 2.31116 25 26 23
2.13903 -1.2751 2.31556 24 25 22
2.11192 -1.26902 2.31982 15 28 41
2.09489 -1.26895 2.33498 11 27 44
2.06803 -1.26287 2.33903 6 23 51
2.05107 -1.2628 2.35412 25 49 76
2.04379 -1.26873 2.38048 19 31 39
2.01717 -1.26266 2.38431 27 31 31
1.96281 -1.23898 2.35453 115 109 95
1.91914 -1.2217 2.33643 123 115 99
1.88529 -1.21042 2.32948 126 118 102
1.82764 -1.18355 2.29203 123 115 99
1.13555 -0.741776 1.44546 120 112 96
1.11345 -0.733732 1.43864 80 66 56
1.10059 -0.73169 1.44347 39 28 17
1.09076 -0.731648 1.45222 37 28 17
1.08093 -0.731607 1.46097 38 29 18
1.07403 -0.733565 1.47373 36 27 16
1.06708 -0.735523 1.48655 39 30 19
1.0572 -0.735481 1.49535 36 27 16
1.04447 -0.733439 1.50005 39 30 19
1.02897 -0.729398 1.5006 39 30 19
1.01638 -0.727358 1.50519 38 29 18
1.00384 -0.725317 1.50973 39 30 19
0.991349 -0.723276 1.51422 38 29 18
0.978916 -0.721236 1.51867 39 30 19
0.96385 -0.717197 1.51883 39 30 19
0.95155 -0.715158 1.52316 38 29 18
0.937199 -0.711519 1.52401 39 30 19
0.922423 -0.707482 1.52391 38 29 18
0.905692 -0.701846 1.52026 41 30 17
0.891662 -0.698209 1.52083 40 29 18
0.875205 -0.692574 1.51693 40 29 18
0.859398 -0.687339 1.51378 42 33 22
0.847684 -0.685302 1.51758 43 32 21
0.840914 -0.687261 1.53024 39 28 15
0.833606 -0.68882 1.54204 44 33 22
0.822429 -0.687182 1.54669 44 33 22
0.810823 -0.685146 1.5504 43 34 21
0.799738 -0.683509 1.55497 45 34 23
0.792393 -0.685067 1.56681 44 33 22
0.783178 -0.685028 1.57501 47 36 25
0.772157 -0.683392 1.57953 45 34 23
0.762964 -0.683353 1.58771 46 35 24
0.752008 -0.681716 1.59216 48 37 26
0.738919 -0.678083 1.59189 45 36 25
0.724208 -0.672853 1.58777 46 40 28
0.709636 -0.667624 1.58352 46 36 27
0.693947 -0.661197 1.57628 43 36 26
0.676362 -0.652775 1.56412 41 34 24
0.66431 -0.649544 1.56425 46 39 29
0.655568 -0.649507 1.57203 46 39 29
0.651596 -0.65426 1.59147 42 35 25
0.647888 -0.659412 1.61199 44 37 27
0.643653 -0.664164 1.63166 45 40 30
0.637763 -0.667319 1.6475 43 40 30
0.630659 -0.669276 1.66045 43 40 30
0.619795 -0.667242 1.6635 40 36 29
0.604965 -0.66082 1.65551 35 30 25
0.591388 -0.655595 1.65037 33 27 25
0.578305 -0.650769 1.64612 30 28 22
0.565351 -0.645944 1.64175 32 32 26
0.550119 -0.638327 1.63014 29 27 27
0.537798 -0.633902 1.62653 32 30 30
0.52926 -0.633866 1.63413 36 35 32
0.521705 -0.635027 1.64484 35 33 27
0.519597 -0.642967 1.67321 40 39 31
0.523614 -0.658884 1.72263 59 54 49
0.534367 -0.683972 1.79653 38 31 26
0.570777 -0.743353 1.96153 28 26 20
0.608594 -0.806716 2.13853 29 30 27
0.628453 -0.848139 2.25864 25 27 21
0.628918 -0.864439 2.31255 18 17 14
0.631789 -0.884723 2.37757 13 12 9
0.636626 -0.908593 2.45276 32 32 26
0.639723 -0.930866 2.5242 47 46 43
0.633891 -0.940779 2.56251 56 55 52
0.621211 -0.940725 2.5738 56 56 50
0.608529 -0.940671 2.58509 45 50 46
0.595848 -0.940617 2.59638 56 57 49
0.585391 -0.94415 2.61762 59 61 50
0.572661 -0.944096 2.62895 70 67 64
0.559933 -0.944042 2.64028 53 45 43
0.549051 -0.947176 2.66057 33 30 27
0.538309 -0.950708 2.68206 59 62 54
0.529232 -0.957427 2.71267 85 80 75
0.516321 -0.957372 2.72416 98 92 85
0.505294 -0.960903 2.7459 99 95 88
0.492333 -0.960848 2.75744 94 93 85
0.477584 -0.957208 2.75865 94 89 84
0.462932 -0.953568 2.75977 95 89 82
0.448564 -0.950327 2.76196 99 93 86
0.4341 -0.946688 2.76291 96 92 85
0.419909 -0.943448 2.76495 95 91 84
0.405633 -0.93981 2.76573 91 90 82
0.392952 -0.939756 2.77702 95 93 87
0.380272 -0.939702 2.78831 91 92 84
0.36759 -0.939648 2.7996 91 91 85
0.353706 -0.936409 2.80136 90 90 84
0.339908 -0.933171 2.80305 90 90 84
0.324939 -0.92635 2.79385 90 90 84
0.30814 -0.913559 2.76641 90 90 84
0.290781 -0.897983 2.73019 90 90 84
0.274088 -0.883205 2.69603 90 90 84
0.256966 -0.865642 2.65298 90 90 84
0.242122 -0.854449 2.62909 90 90 84
0.155347 -0.767427 2.41751 90 89 86
0.133783 -0.708109 2.23929 90 89 86
0.129383 -0.737505 2.34126 90 89 86
0.114912 -0.709619 2.2614 90 89 86
0.112942 -0.760887 2.43407 90 89 86
0.0658896 -0.814349 2.65483 90 89 86
0.0530897 -0.787663 2.57745 90 89 86
0.0424452 -0.787618 2.58693 90 89 86
0.032475 -0.80427 2.65145 90 89 86
0.0215406 -0.801839 2.65324 90 90 84
0.0107348 -0.804178 2.67081 90 90 84
-0.00013573 -0.804132 2.68048 90 90 84
-0.0110383 -0.80647 2.69814 90 90 84
-0.021941 -0.806424 2.70785 90 90 84
-0.0329407 -0.808762 2.72559 90 90 84
-0.0438752 -0.808716 2.73533 90 90 84
-0.0549983 -0.811451 2.7545 90 90 84
-0.066358 -0.816173 2.78052 90 90 84
-0.0773952 -0.816126 2.79034 90 90 84
-0.0884318 -0.816079 2.80017 90 90 84
-0.0988875 -0.811265 2.79358 90 90 84
-0.109483 -0.808437 2.79374 90 90 84
-0.120063 -0.806008 2.79521 90 90 84
-0.130191 -0.801195 2.78832 90 90 84
-0.13977 -0.793999 2.773 90 90 84
-0.149608 -0.789187 2.76586 90 90 84
-0.160284 -0.789142 2.77537 90 90 84
-0.171478 -0.791479 2.79328 90 90 84
-0.183283 -0.796199 2.81969 90 90 84
1.7067 -0.586352 0.376145 6 24 54
1.70732 -0.589187 0.384864 3 19 49
1.70668 -0.591613 0.393378 8 27 55
1.70598 -0.594038 0.401949 9 30 59
1.7099 -0.598101 0.411706 10 33 69
1.71721 -0.603393 0.422418 5 29 63
1.75572 -0.619744 0.441127 4 31 64
1.80072 -0.638551 0.461997 3 30 61
1.84408 -0.656946 0.483006 8 16 43
1.8572 -0.664691 0.496491 9 14 25
1.85303 -0.666292 0.505499 5 9 14
1.84429 -0.666255 0.513282 7 11 10
1.84006 -0.667856 0.522346 10 13 16
1.84028 -0.671094 0.532749 12 19 23
1.846 -0.676379 0.544877 26 35 34
1.85047 -0.681254 0.556796 37 49 51
1.85038 -0.684492 0.567471 37 48 52
1.85571 -0.689775 0.579944 49 59 61
1.85652 -0.693421 0.591146 48 56 58
1.8616 -0.698703 0.603849 54 58 58
1.86653 -0.703985 0.616676 49 54 50
1.86701 -0.707629 0.628174 48 53 49
1.86739 -0.711273 0.639758 42 47 43
1.86767 -0.714917 0.651428 41 47 47
1.86786 -0.71856 0.663185 40 49 48
1.87324 -0.724248 0.676939 44 52 54
1.87847 -0.729936 0.690828 41 51 53
1.88984 -0.738078 0.707203 43 53 55
1.89578 -0.744173 0.721785 39 48 52
1.90155 -0.750268 0.736511 21 31 33
1.91233 -0.758408 0.753412 14 22 29
1.92391 -0.766955 0.770916 17 26 30
1.92507 -0.771412 0.78446 16 26 28
1.92001 -0.773414 0.795587 24 34 36
1.90985 -0.77337 0.804633 29 40 39
1.89969 -0.773327 0.813679 27 33 33
1.88953 -0.773284 0.822726 30 30 31
1.86843 -0.768743 0.826934 39 39 39
1.84252 -0.762158 0.828813 25 30 46
1.82267 -0.758027 0.833236 26 52 87
1.81271 -0.757985 0.842105 4 30 70
1.80275 -0.757943 0.850974 6 33 66
1.81309 -0.766485 0.869583 5 32 65
1.85013 -0.786472 0.901512 6 30 62
1.88856 -0.807274 0.934857 2 22 42
1.91218 -0.821943 0.961518 2 14 24
1.9184 -0.829254 0.979831 5 14 23
1.931 -0.839424 1.00173 6 13 22
1.93865 -0.84755 1.02141 30 39 37
1.94517 -0.855267 1.04078 24 30 29
1.9524 -0.863392 1.06083 10 19 18
1.95942 -0.871515 1.08107 24 30 29
1.96714 -0.880046 1.10202 32 38 37
1.97463 -0.888577 1.12317 26 32 31
1.98911 -0.900374 1.14869 29 35 34
2.01046 -0.915438 1.17869 25 31 30
2.03231 -0.930909 1.20958 2 6 5
2.04134 -0.94066 1.23334 3 8 4
2.03601 -0.943875 1.24868 2 7 3
2.01659 -0.940555 1.25537 1 5 4
1.99029 -0.933968 1.25759 2 7 3
1.95811 -0.924524 1.25578 8 9 6
1.93907 -0.921205 1.26213 16 20 19
1.92096 -0.918296 1.26897 26 37 50
1.90888 -0.918244 1.27973 6 25 53
1.8968 -0.918193 1.29049 0 11 29
1.89728 -0.924266 1.30993 2 13 26
1.89761 -0.930337 1.32951 2 28 68
1.90521 -0.940082 1.35453 22 61 104
1.91914 -0.953091 1.38452 2 23 52
1.92701 -0.963242 1.41063 0 16 35
1.94921 -0.980738 1.44783 0 15 34
1.9645 -0.994967 1.48058 4 19 38
1.98021 -1.0096 1.51428 25 36 49
2.00428 -1.02872 1.55511 42 50 57
2.02154 -1.04458 1.59141 35 45 47
2.03915 -1.06084 1.62872 40 48 50
2.04933 -1.07343 1.66072 38 46 48
2.05917 -1.08602 1.69302 21 27 27
2.06177 -1.09493 1.71986 12 15 18
2.06412 -1.10385 1.7469 13 16 19
2.05792 -1.10827 1.767 13 16 19
2.05159 -1.1127 1.7872 14 17 20
2.03693 -1.11263 1.80025 14 17 20
2.02227 -1.11257 1.8133 13 20 29
2.00761 -1.11251 1.82635 16 32 56
2.0178 -1.12631 1.86233 9 27 52
2.03631 -1.14501 1.90678 4 20 44
2.08313 -1.18001 1.97902 4 19 38
2.12259 -1.21134 2.04589 11 18 29
2.1747 -1.25041 2.12667 21 25 24
2.20958 -1.2801 2.19231 26 31 27
2.22414 -1.29837 2.23896 32 32 26
2.21742 -1.30441 2.26482 44 40 33
2.21054 -1.31045 2.29081 37 32 27
2.18303 -1.30427 2.29543 26 23 20
2.15568 -1.29808 2.29991 25 26 23
2.12849 -1.29189 2.30424 20 25 21
2.11146 -1.29182 2.31941 17 24 35
2.08452 -1.28564 2.32353 14 26 41
2.06756 -1.28556 2.33862 7 22 43
2.06036 -1.2916 2.3649 22 48 75
2.04333 -1.29153 2.38007 15 31 43
2.01671 -1.28535 2.3839 26 26 27
1.96236 -1.26124 2.35413 104 98 84
1.9187 -1.24365 2.33604 122 114 98
1.88485 -1.23218 2.32909 125 116 98
1.86859 -1.23211 2.34356 123 113 97
1.13528 -0.755109 1.44522 121 113 97
1.12229 -0.753031 1.45017 84 75 64
1.11235 -0.752989 1.45901 40 25 17
1.10242 -0.752946 1.46786 38 29 18
1.09544 -0.75494 1.4807 37 28 17
1.0884 -0.756934 1.49358 37 28 17
1.08131 -0.758927 1.50652 37 28 17
1.0713 -0.758884 1.51543 37 28 17
1.05274 -0.752735 1.51208 37 28 17
1.03999 -0.750658 1.51682 38 29 18
1.02449 -0.746545 1.51736 38 29 18
1.01187 -0.744468 1.52198 37 27 18
0.996564 -0.740356 1.52236 38 28 19
0.981365 -0.736245 1.52264 39 29 20
0.966274 -0.732134 1.52283 38 29 18
0.953948 -0.730058 1.52718 38 29 18
0.941677 -0.727983 1.53148 39 30 19
0.927375 -0.72428 1.53229 38 29 18
0.912654 -0.720171 1.53215 38 29 18
0.896 -0.714434 1.52843 37 28 17
0.879496 -0.708699 1.52458 38 29 18
0.861145 -0.701336 1.51708 39 30 19
0.849905 -0.69967 1.52179 38 29 16
0.840663 -0.69963 1.53001 39 30 19
0.831421 -0.699591 1.53824 38 28 19
0.817876 -0.695892 1.53838 37 28 17
0.808683 -0.695853 1.54656 37 28 17
0.801358 -0.69744 1.55838 41 30 19
0.7963 -0.701061 1.57481 43 32 21
0.789319 -0.703055 1.58765 42 28 18
0.780028 -0.703015 1.59592 40 29 18
0.768509 -0.700943 1.59955 43 32 21
0.755282 -0.697245 1.5994 40 29 18
0.740411 -0.691921 1.59542 43 34 23
0.723962 -0.684971 1.58755 43 34 23
0.705998 -0.676396 1.57572 46 37 26
0.68826 -0.667823 1.5637 42 32 23
0.671161 -0.659656 1.55243 42 33 22
0.659583 -0.656774 1.55346 45 36 25
0.649289 -0.655112 1.55733 46 37 26
0.642217 -0.656701 1.56892 43 37 25
0.636277 -0.659508 1.58348 46 40 28
0.63065 -0.662722 1.59909 44 38 26
0.621886 -0.662685 1.60689 46 37 26
0.613122 -0.662647 1.6147 46 37 26
0.601394 -0.65936 1.61454 43 33 24
0.588657 -0.654855 1.61131 48 38 29
0.574238 -0.648318 1.60295 46 39 29
0.563181 -0.645439 1.60352 40 35 25
0.550454 -0.640528 1.59896 40 34 27
0.539575 -0.637649 1.59937 40 36 29
0.528432 -0.634365 1.59869 33 33 27
0.520039 -0.634329 1.60617 36 34 28
0.515577 -0.639166 1.62603 35 33 27
0.518073 -0.652936 1.66885 47 42 37
0.52464 -0.672389 1.72659 53 44 39
0.548443 -0.714982 1.84449 33 26 21
0.587033 -0.778682 2.01811 28 25 22
0.619726 -0.836691 2.17843 28 27 24
0.631981 -0.868713 2.27217 25 24 21
0.632661 -0.885713 2.3272 13 12 9
0.635734 -0.90677 2.39335 15 12 9
0.642994 -0.934724 2.47829 36 35 32
0.646228 -0.957805 2.55092 43 42 39
0.63811 -0.96465 2.58066 55 52 49
0.623233 -0.96135 2.58331 64 61 58
0.606123 -0.954397 2.57603 48 53 49
0.593485 -0.954343 2.58728 46 46 40
0.580847 -0.95429 2.59853 55 55 49
0.568209 -0.954236 2.60978 60 61 53
0.557461 -0.957428 2.62995 41 33 31
0.548704 -0.964271 2.66026 36 33 30
0.539765 -0.971112 2.69074 62 60 54
0.530863 -0.978359 2.72251 83 77 70
0.517902 -0.978304 2.73405 95 91 84
0.506617 -0.981494 2.7547 95 91 84
0.493614 -0.981438 2.76627 99 95 88
0.48061 -0.981383 2.77785 100 95 90
0.467607 -0.981328 2.78943 97 90 85
0.4531 -0.978029 2.79174 92 85 80
0.436855 -0.970676 2.78236 94 87 82
0.422575 -0.967377 2.78448 92 88 81
0.408209 -0.963674 2.78535 92 87 82
0.394105 -0.960377 2.78731 90 87 84
0.379927 -0.956675 2.78801 89 88 85
0.366001 -0.953378 2.78981 88 89 86
0.352161 -0.950082 2.79153 90 90 84
0.337104 -0.943138 2.78242 90 90 84
0.322368 -0.936601 2.77434 90 90 84
0.306731 -0.926822 2.75647 90 90 84
0.290451 -0.914207 2.7299 90 90 84
0.274628 -0.901999 2.70425 90 90 84
0.258301 -0.886957 2.66977 90 90 84
0.238768 -0.85895 2.59576 90 90 84
0.143444 -0.637587 1.95735 89 89 83
0.1343 -0.63431 1.95489 89 89 83
0.126207 -0.635895 1.96739 89 89 83
0.119421 -0.644769 2.00258 89 89 83
0.112538 -0.654452 2.0405 89 89 83
0.105333 -0.66373 2.07738 89 89 83
0.0982343 -0.675435 2.12212 89 89 83
0.0875056 -0.662035 2.08795 89 89 83
0.0781423 -0.657139 2.08039 89 89 83
0.0420327 -0.63837 2.05161 89 89 83
0.0270101 -0.687273 2.22527 89 89 83
0.0186971 -0.718399 2.33467 88 89 81
0.00956744 -0.750331 2.44745 88 89 81
-0.000410734 -0.78064 2.55568 88 89 81
-0.0111672 -0.808922 2.65799 88 89 81
-0.0221709 -0.818588 2.69958 88 89 81
-0.0331393 -0.82097 2.71729 88 89 81
-0.0440415 -0.820923 2.727 88 89 81
-0.0551065 -0.823305 2.7448 88 89 81
-0.0662686 -0.82609 2.76401 88 89 81
-0.0772406 -0.826043 2.77378 89 90 82
-0.0879105 -0.823165 2.774 89 90 82
-0.0982624 -0.818265 2.76732 89 90 82
-0.109133 -0.818219 2.777 89 90 82
-0.119647 -0.815746 2.77841 89 90 82
-0.130097 -0.813274 2.77977 89 90 82
-0.140062 -0.808375 2.77274 89 90 82
-0.149898 -0.803477 2.7656 89 90 82
-0.160089 -0.801006 2.76673 95 96 88
-0.170734 -0.800961 2.77621 95 96 88
-0.181928 -0.803341 2.79412 95 96 88
1.70649 -0.596643 0.37596 6 24 54
1.70711 -0.599529 0.384678 4 21 49
1.70647 -0.601998 0.393191 8 27 55
1.70224 -0.603215 0.40093 9 30 59
1.69798 -0.604433 0.408698 10 33 69
1.70534 -0.609819 0.419361 5 29 63
1.73925 -0.62479 0.436851 4 31 64
1.79241 -0.646845 0.459722 3 30 61
1.83924 -0.666815 0.481594 8 16 43
1.85696 -0.676363 0.496281 9 14 25
1.85735 -0.67966 0.50653 5 9 14
1.84859 -0.679622 0.514332 7 11 10
1.84434 -0.681252 0.523415 10 13 16
1.84004 -0.682881 0.532537 17 24 28
1.84129 -0.686593 0.543345 26 35 34
1.84578 -0.691555 0.555243 37 49 51
1.84571 -0.69485 0.565898 37 48 52
1.84666 -0.698561 0.576974 49 59 61
1.84641 -0.701855 0.587787 48 56 58
1.85154 -0.707231 0.600445 52 56 55
1.85652 -0.712606 0.613227 49 54 50
1.86136 -0.717981 0.626134 48 53 49
1.86714 -0.723772 0.639533 42 47 43
1.87276 -0.729563 0.653066 41 47 47
1.8676 -0.731188 0.662957 40 49 48
1.87298 -0.736977 0.67671 44 52 54
1.87821 -0.742766 0.690597 41 51 53
1.88434 -0.74897 0.70501 43 53 55
1.8903 -0.755174 0.719566 39 48 52
1.8961 -0.761376 0.734266 21 31 33
1.9069 -0.76966 0.75114 14 22 29
1.91235 -0.775861 0.766151 17 26 30
1.91357 -0.780397 0.779642 16 26 28
1.90857 -0.782435 0.790715 24 34 36
1.89846 -0.782392 0.799709 29 40 39
1.88836 -0.78235 0.808702 27 33 33
1.87826 -0.782306 0.817696 30 30 31
1.85822 -0.778103 0.822293 39 39 39
1.8373 -0.773483 0.826349 25 30 46
1.81748 -0.76928 0.830749 26 52 87
1.80266 -0.767158 0.837324 4 30 70
1.79761 -0.769196 0.84844 6 33 66
1.80798 -0.777889 0.867022 5 32 65
1.84408 -0.797813 0.898453 6 30 62
1.88254 -0.818982 0.931762 3 17 34
1.91189 -0.836405 0.961257 2 14 24
1.9181 -0.843845 0.979568 5 14 23
1.92506 -0.851701 0.998538 6 13 22
1.93835 -0.862466 1.02114 30 39 37
1.95137 -0.87323 1.04398 24 30 29
1.95856 -0.881498 1.06407 10 19 18
1.96554 -0.889766 1.08434 24 30 29
1.97321 -0.898448 1.10532 32 38 37
1.98066 -0.907129 1.1265 26 32 31
1.99511 -0.919135 1.15205 29 35 34
2.01014 -0.931555 1.1784 24 30 29
2.02574 -0.944389 1.20557 2 6 5
2.02682 -0.950572 1.22447 3 8 4
2.01453 -0.95052 1.23541 2 7 3
1.99524 -0.947143 1.242 1 5 4
1.9769 -0.944182 1.24905 2 7 3
1.95086 -0.937481 1.25105 8 9 6
1.93874 -0.93743 1.26184 17 21 20
1.92661 -0.937378 1.27263 24 35 48
1.91449 -0.937327 1.28342 5 27 54
1.90912 -0.940599 1.29881 0 11 29
1.89695 -0.940547 1.30964 4 12 26
1.90393 -0.95005 1.33388 2 28 68
1.90488 -0.956644 1.35423 22 60 105
1.91223 -0.966561 1.37947 2 23 52
1.92013 -0.976891 1.40555 0 16 35
1.94156 -0.994281 1.4421 0 15 34
1.96414 -1.0125 1.48027 4 20 37
1.98785 -1.03155 1.52008 25 37 47
2.00392 -1.04685 1.55478 44 52 59
2.01327 -1.05884 1.58487 34 43 47
2.02309 -1.07124 1.61585 38 48 50
2.03259 -1.08363 1.64713 37 45 47
2.04254 -1.09644 1.67933 18 24 24
2.05293 -1.10967 1.71246 12 15 18
2.05534 -1.11874 1.73945 12 15 18
2.05752 -1.12781 1.76665 13 16 19
2.05119 -1.13231 1.78685 15 18 21
2.03653 -1.13225 1.7999 14 15 23
2.02188 -1.13219 1.81295 13 19 33
2.01531 -1.13669 1.83336 14 32 57
2.01739 -1.14617 1.86197 7 27 52
2.0359 -1.1652 1.90641 3 19 43
2.08271 -1.20082 1.97865 3 20 39
2.12216 -1.2327 2.0455 12 17 28
2.17425 -1.27246 2.12627 23 23 24
2.20913 -1.30268 2.1919 30 31 28
2.22367 -1.32128 2.23855 36 34 28
2.21695 -1.32743 2.2644 40 37 27
2.19976 -1.32735 2.27971 37 33 26
2.17233 -1.32106 2.28426 26 24 18
2.14507 -1.31476 2.28867 23 24 21
2.11796 -1.30847 2.29293 21 26 22
2.09102 -1.30218 2.29705 14 22 36
2.07415 -1.30211 2.31207 10 25 39
2.04745 -1.29581 2.31598 7 22 43
2.05015 -1.30818 2.3533 20 44 76
2.04287 -1.31433 2.37966 19 32 45
2.02583 -1.31426 2.39482 26 26 27
1.98028 -1.29553 2.37578 101 92 79
1.93647 -1.27763 2.35783 122 114 98
1.90185 -1.26554 2.35025 124 117 99
1.88544 -1.26547 2.36485 123 115 99
1.13807 -0.770515 1.44887 122 114 98
1.12505 -0.7684 1.45385 87 78 67
1.11509 -0.768358 1.46272 39 27 18
1.10513 -0.768316 1.47159 38 29 18
1.10107 -0.772417 1.48844 35 26 13
1.0975 -0.776933 1.50619 37 28 15
1.0938 -0.781448 1.52405 35 26 13
1.08654 -0.783476 1.53714 36 27 16
1.07012 -0.778876 1.53719 35 26 15
1.05099 -0.772205 1.53303 37 27 18
1.0326 -0.765948 1.52953 35 25 16
1.01437 -0.759693 1.5259 39 30 19
0.996299 -0.753438 1.52212 40 28 19
0.97839 -0.747184 1.5182 36 26 17
0.963326 -0.743001 1.51837 37 28 17
0.951029 -0.740889 1.52269 35 26 13
0.941416 -0.740849 1.53125 36 27 14
0.929199 -0.738737 1.53551 37 28 15
0.914974 -0.73497 1.53625 38 29 16
0.895744 -0.727063 1.52821 39 29 20
0.8747 -0.7175 1.51648 36 26 17
0.858896 -0.712079 1.51333 39 30 19
0.845208 -0.708314 1.5136 38 29 18
0.83406 -0.706619 1.51823 37 28 17
0.824888 -0.70658 1.52639 37 27 18
0.815715 -0.706541 1.53456 38 28 19
0.808433 -0.708158 1.54634 38 29 18
0.803444 -0.711843 1.5627 41 30 19
0.800204 -0.717184 1.58281 40 29 18
0.793174 -0.719214 1.59569 41 32 21
0.783835 -0.719174 1.604 41 32 21
0.772268 -0.717065 1.60768 39 30 19
0.758994 -0.713302 1.60757 39 30 19
0.742338 -0.70623 1.59989 42 33 22
0.723716 -0.697089 1.58733 41 32 21
0.704059 -0.686709 1.57172 38 28 19
0.68802 -0.679639 1.56348 41 31 22
0.672578 -0.672983 1.55604 45 36 25
0.660571 -0.669637 1.55614 40 29 18
0.649054 -0.666705 1.55712 50 39 28
0.640392 -0.666668 1.56483 41 31 22
0.630162 -0.664977 1.56864 41 31 22
0.621522 -0.66494 1.57633 44 35 24
0.611358 -0.66325 1.58009 44 34 25
0.601236 -0.661559 1.5838 44 34 25
0.589675 -0.658215 1.5835 46 36 27
0.577106 -0.653631 1.58012 48 38 29
0.564654 -0.649048 1.57663 45 36 25
0.553384 -0.645705 1.57607 44 34 25
0.542548 -0.642776 1.57645 44 35 24
0.533162 -0.6415 1.58083 42 33 22
0.524823 -0.641465 1.58826 48 39 28
0.518813 -0.644322 1.60288 43 36 26
0.515347 -0.650486 1.62583 42 35 25
0.521381 -0.669046 1.68006 26 21 11
0.536432 -0.700001 1.76599 30 24 17
0.574024 -0.761942 1.93119 30 26 19
0.613368 -0.828422 2.10939 31 28 25
0.639261 -0.878781 2.24792 25 25 25
0.639934 -0.895671 2.30162 24 23 20
0.638718 -0.910494 2.35038 13 11 11
0.641665 -0.931924 2.41663 13 12 9
0.647123 -0.957895 2.49521 41 39 39
0.650536 -0.981799 2.56899 46 44 44
0.637764 -0.981745 2.58036 54 52 52
0.620522 -0.97467 2.57319 61 59 59
0.60372 -0.968008 2.56696 55 54 51
0.588855 -0.964238 2.56827 58 59 56
0.576308 -0.964185 2.57945 51 50 42
0.565935 -0.967848 2.6006 51 48 45
0.557117 -0.974401 2.62964 41 38 35
0.550434 -0.985081 2.67003 35 31 24
0.543471 -0.99576 2.71066 54 56 50
0.53425 -1.00272 2.74139 85 80 70
0.521199 -1.00267 2.75301 90 86 74
0.508147 -1.00261 2.76463 93 91 79
0.495095 -1.00256 2.77625 94 88 81
0.480257 -0.998787 2.77754 96 90 83
0.465709 -0.99543 2.77989 94 88 81
0.451059 -0.991661 2.78102 93 89 82
0.438148 -0.991606 2.79251 93 88 83
0.422227 -0.984537 2.78417 86 84 78
0.407862 -0.980769 2.78504 90 86 79
0.39376 -0.977414 2.787 93 89 82
0.378296 -0.970346 2.77825 86 83 80
0.361772 -0.959979 2.75985 84 83 80
0.348067 -0.956626 2.76146 85 84 81
0.334449 -0.953273 2.76299 85 84 81
0.319802 -0.946621 2.75484 85 84 81
0.305326 -0.939969 2.74653 85 84 81
0.290123 -0.930432 2.72961 85 84 81
0.275289 -0.921308 2.71368 85 84 81
0.260575 -0.911772 2.69632 85 84 81
0.247907 -0.908835 2.69832 85 84 81
0.18144 -0.698494 2.08204 85 84 81
0.162774 -0.659698 1.97416 86 86 86
0.153406 -0.656363 1.97191 86 86 86
0.143851 -0.651792 1.96585 86 86 86
0.134414 -0.647221 1.95968 86 86 86
0.125657 -0.645537 1.96218 86 86 86
0.116718 -0.642616 1.96087 86 86 86
0.109384 -0.648763 1.98726 86 86 86
0.102337 -0.657794 2.02267 86 86 86
0.094936 -0.666 2.05575 86 86 86
0.0862529 -0.665963 2.06348 86 86 86
0.0773776 -0.664278 2.06609 86 86 86
0.0398145 -0.618812 1.95384 86 86 86
0.031744 -0.618778 1.96103 86 86 86
0.0240674 -0.629042 2.00097 86 86 86
0.0160076 -0.634774 2.02669 87 87 87
0.00781757 -0.642153 2.05782 87 87 87
-0.000618349 -0.710078 2.28386 87 87 87
-0.0106271 -0.76358 2.46495 87 87 87
-0.0217443 -0.806368 2.61259 87 87 87
-0.0332374 -0.83062 2.70096 87 87 87
-0.0443379 -0.835515 2.72674 87 87 87
-0.0555939 -0.840822 2.75397 87 87 87
-0.0667619 -0.843246 2.77186 87 87 87
-0.0779943 -0.84567 2.78981 86 86 87
-0.0887708 -0.843152 2.79146 86 86 87
-0.099142 -0.837754 2.78347 86 86 87
-0.110077 -0.837708 2.79321 86 86 87
-0.121011 -0.837661 2.80294 86 86 87
-0.131946 -0.837615 2.81268 86 86 87
-0.14246 -0.835099 2.81409 86 86 87
-0.152455 -0.830114 2.8071 86 86 87
-0.161835 -0.82266 2.79161 86 86 87
-0.172059 -0.820146 2.79277 87 87 88
-0.182768 -0.8201 2.8023 87 87 88
1.70628 -0.606935 0.375775 6 24 54
1.7069 -0.609871 0.384492 4 21 49
1.70626 -0.612383 0.393004 8 27 55
1.6985 -0.61235 0.399912 9 30 59
1.69426 -0.613589 0.407665 10 33 69
1.70163 -0.619068 0.418312 5 29 63
1.73555 -0.634299 0.435783 4 31 64
1.78756 -0.656311 0.458336 3 30 61
1.83901 -0.678321 0.481387 8 16 43
1.8613 -0.689731 0.497294 9 14 25
1.86167 -0.693085 0.50756 5 9 14
1.85742 -0.694743 0.516643 7 11 10
1.85312 -0.696401 0.525764 10 13 16
1.8499 -0.698483 0.535247 17 24 28
1.84552 -0.700141 0.54445 26 35 34
1.84998 -0.705188 0.556365 37 49 51
1.84547 -0.706846 0.565682 37 48 52
1.84641 -0.710621 0.576757 49 59 61
1.84617 -0.713973 0.587569 48 56 58
1.84693 -0.717748 0.598811 52 56 55
1.85193 -0.723217 0.611572 49 54 50
1.86111 -0.73038 0.62591 48 53 49
1.87118 -0.737966 0.640779 42 47 43
1.87251 -0.742162 0.652839 41 47 47
1.87266 -0.745935 0.664617 40 49 48
1.87272 -0.749706 0.676481 44 52 54
1.87795 -0.755596 0.690366 41 51 53
1.88407 -0.761908 0.704777 43 53 55
1.88483 -0.766102 0.717348 39 48 52
1.89065 -0.772412 0.732022 21 31 33
1.89116 -0.776605 0.744809 13 21 28
1.8967 -0.782915 0.759747 16 25 29
1.89697 -0.787107 0.772748 16 26 28
1.89205 -0.789181 0.783744 24 34 36
1.88204 -0.789139 0.792661 29 40 39
1.88307 -0.793753 0.806309 27 33 33
1.87299 -0.79371 0.815279 30 30 31
1.85795 -0.791551 0.82205 39 39 39
1.83209 -0.784736 0.823886 25 30 46
1.80739 -0.778345 0.826018 26 52 87
1.79262 -0.776187 0.832546 4 30 70
1.79248 -0.780377 0.845907 6 33 66
1.79708 -0.786683 0.861681 4 31 64
1.83323 -0.806952 0.893053 6 30 62
1.87174 -0.828488 0.926303 3 17 34
1.90019 -0.845791 0.955262 2 14 24
1.91213 -0.855899 0.976409 5 14 23
1.92476 -0.866429 0.998273 6 13 22
1.94366 -0.87992 1.02382 30 39 37
1.96314 -0.893832 1.05017 24 30 29
1.97672 -0.905205 1.07383 10 19 18
1.98451 -0.914038 1.09471 24 30 29
1.98568 -0.91991 1.1122 32 38 37
1.9867 -0.925781 1.12983 26 32 31
1.99479 -0.935035 1.15177 29 35 34
1.99636 -0.941328 1.17023 24 30 29
2.01114 -0.953963 1.19679 2 6 5
2.0132 -0.960677 1.21615 3 8 4
2.00715 -0.963585 1.2308 2 7 3
1.99491 -0.963533 1.2417 1 5 4
1.98266 -0.963481 1.2526 2 7 3
1.96436 -0.96047 1.25962 8 9 6
1.94528 -0.957036 1.26602 17 21 20
1.92629 -0.953603 1.27234 24 35 48
1.91416 -0.953551 1.28313 5 27 54
1.90879 -0.956881 1.29851 0 11 29
1.90919 -0.963169 1.31802 4 12 26
1.91026 -0.969879 1.33825 6 32 72
1.90454 -0.973207 1.35393 22 60 105
1.91189 -0.983296 1.37917 2 23 52
1.91979 -0.993806 1.40524 0 16 35
1.94851 -1.0153 1.44721 0 15 34
1.97104 -1.03384 1.48541 4 20 37
1.98749 -1.04941 1.51976 25 37 47
2.00355 -1.06498 1.55446 44 52 59
2.0129 -1.07718 1.58454 34 43 47
2.01487 -1.08557 1.60926 38 48 50
2.01664 -1.09396 1.63417 37 45 47
2.03442 -1.11121 1.67263 18 24 24
2.05254 -1.12889 1.71212 13 16 19
2.06334 -1.14277 1.7462 12 15 18
2.06545 -1.152 1.77344 13 16 19
2.06733 -1.16122 1.8009 15 18 21
2.06151 -1.16623 1.82197 14 15 23
2.04667 -1.16616 1.83519 13 19 33
2.023 -1.16103 1.84037 14 32 57
2.02502 -1.17068 1.86903 7 27 52
2.04419 -1.19046 1.9142 3 19 43
2.07293 -1.21615 1.96938 3 20 39
2.12172 -1.25407 2.04512 12 17 28
2.1738 -1.29452 2.12587 23 23 24
2.20867 -1.32526 2.1915 30 31 28
2.21274 -1.33785 2.2276 36 34 28
2.20609 -1.34411 2.25338 39 36 26
2.18898 -1.34404 2.26861 35 31 24
2.16164 -1.33763 2.27309 26 24 18
2.12431 -1.3249 2.2666 24 25 22
2.09737 -1.3185 2.27072 21 26 22
2.08058 -1.31843 2.28567 14 22 36
2.06379 -1.31836 2.30062 10 25 39
2.04699 -1.31829 2.31557 7 22 43
2.03995 -1.32454 2.34171 20 44 76
2.0424 -1.33713 2.37925 19 32 45
2.02537 -1.33705 2.39441 26 26 27
1.98933 -1.32433 2.38677 101 92 79
1.93602 -1.2998 2.35743 122 114 98
1.91012 -1.2934 2.36063 124 117 99
1.885 -1.28743 2.36446 123 115 99
1.14086 -0.785993 1.45253 122 114 98
1.12781 -0.783842 1.45753 73 64 53
1.11482 -0.781691 1.46248 39 27 18
1.10486 -0.781649 1.47135 38 29 18
1.09785 -0.783715 1.48421 35 26 13
1.0943 -0.78831 1.50194 37 28 15
1.09353 -0.795011 1.52381 35 26 13
1.08626 -0.797076 1.53689 36 27 16
1.06984 -0.792396 1.53695 35 26 15
1.0541 -0.788139 1.53772 37 27 18
1.02954 -0.777139 1.52516 35 25 16
1.00581 -0.766561 1.51318 39 30 19
0.985082 -0.758092 1.50515 40 28 19
0.969994 -0.753837 1.50534 37 27 18
0.957697 -0.751689 1.50967 37 28 17
0.950768 -0.753755 1.52246 35 26 13
0.941155 -0.753715 1.53102 36 27 14
0.931542 -0.753674 1.53958 37 28 15
0.9075 -0.741838 1.52391 37 28 15
0.879169 -0.726212 1.50014 39 29 20
0.858805 -0.716906 1.48913 36 26 17
0.84317 -0.711392 1.48584 39 30 19
0.834094 -0.711353 1.49392 38 29 18
0.825018 -0.711314 1.502 37 28 17
0.818359 -0.713381 1.51455 37 27 18
0.811167 -0.715027 1.52625 38 28 19
0.806294 -0.718778 1.54251 38 29 18
0.800858 -0.722108 1.55794 40 29 18
0.795797 -0.725858 1.57436 39 28 17
0.788815 -0.727924 1.5872 41 32 21
0.779524 -0.727884 1.59547 41 32 21
0.770234 -0.727845 1.60374 39 30 19
0.756982 -0.724017 1.60362 37 28 17
0.739915 -0.716401 1.59498 42 33 22
0.717889 -0.703735 1.57487 41 32 21
0.700425 -0.69528 1.56393 38 28 19
0.686106 -0.689771 1.55947 41 31 22
0.672341 -0.684684 1.55583 45 36 25
0.660335 -0.68128 1.55593 40 29 18
0.650428 -0.679981 1.56077 50 39 28
0.640157 -0.678261 1.56462 41 31 22
0.628361 -0.674859 1.56453 41 31 22
0.616651 -0.671456 1.56436 44 35 24
0.606551 -0.669737 1.56806 44 34 25
0.595368 -0.666756 1.56875 44 34 25
0.582778 -0.662093 1.56539 46 36 27
0.571402 -0.658692 1.56492 49 40 29
0.56047 -0.655712 1.56539 42 32 23
0.550677 -0.653994 1.56881 44 34 25
0.542322 -0.653959 1.57625 44 35 24
0.53637 -0.656867 1.59082 41 32 21
0.529329 -0.658513 1.60238 45 36 25
0.528565 -0.668149 1.63352 46 36 27
0.535081 -0.687454 1.68863 44 34 25
0.55076 -0.71937 1.77531 28 21 11
0.578915 -0.76894 1.90649 27 21 14
0.616382 -0.832798 2.07441 30 26 19
0.646099 -0.888241 2.22274 33 30 27
0.651268 -0.911312 2.29097 27 25 25
0.650239 -0.926395 2.33955 26 25 22
0.647086 -0.938953 2.38208 13 11 12
0.650149 -0.961177 2.44954 19 16 13
0.653758 -0.985079 2.5218 41 39 39
0.650189 -0.998894 2.56868 43 41 41
0.635272 -0.995478 2.57137 56 54 54
0.615973 -0.984919 2.55544 57 55 55
0.599002 -0.977723 2.54804 54 52 52
0.584482 -0.974309 2.55038 56 60 59
0.573994 -0.977617 2.57031 45 45 34
0.563421 -0.980924 2.59031 42 41 38
0.554885 -0.988012 2.62042 35 32 29
0.550086 -1.00224 2.66972 36 32 25
0.54312 -1.01311 2.71035 58 62 51
0.533896 -1.02019 2.74107 80 81 68
0.520844 -1.02014 2.75269 92 89 79
0.507792 -1.02008 2.76431 87 87 76
0.492907 -1.01625 2.76565 93 87 85
0.476533 -1.00905 2.75771 95 87 85
0.460341 -1.00186 2.74962 94 87 82
0.445832 -0.998026 2.75062 91 85 78
0.43306 -0.997972 2.76199 94 87 82
0.418873 -0.994559 2.76403 88 86 80
0.404601 -0.990727 2.76482 94 89 84
0.390591 -0.987315 2.7667 87 82 77
0.373936 -0.976767 2.74842 85 83 77
0.357705 -0.966641 2.73109 85 83 77
0.342931 -0.959873 2.72306 85 83 77
0.330642 -0.959821 2.734 85 83 77
0.31724 -0.956411 2.73534 85 83 77
0.304057 -0.953422 2.7378 85 83 77
0.288894 -0.943719 2.72085 85 83 77
0.274964 -0.937374 2.71339 85 83 77
0.261194 -0.931029 2.70578 85 83 77
0.241183 -0.900771 2.62826 85 83 77
0.18023 -0.706901 2.07076 85 83 77
0.162541 -0.671205 1.97396 85 83 77
0.152885 -0.666554 1.96799 85 83 77
0.143257 -0.661484 1.96067 85 83 77
0.134527 -0.66019 1.96447 85 83 77
0.125429 -0.656799 1.96198 85 83 77
0.116715 -0.655086 1.96444 85 83 77
0.108599 -0.656727 1.97696 85 83 77
0.100697 -0.660046 1.99459 85 83 77
0.0926492 -0.662946 2.01102 85 83 77
0.0845797 -0.666264 2.0288 85 83 77
0.0765683 -0.67084 2.0505 85 83 77
0.0694576 -0.685477 2.10317 85 83 77
0.0481104 -0.635517 1.9646 85 83 77
0.0395955 -0.629614 1.95365 85 83 77
0.0313989 -0.627065 1.953 85 83 77
0.023298 -0.625354 1.95492 85 83 77
0.0152196 -0.622805 1.95416 85 83 77
0.00726418 -0.625286 1.96919 85 83 77
-0.000757979 -0.629443 1.98957 85 83 77
-0.00879333 -0.626894 1.98878 85 83 77
-0.0175405 -0.653259 2.07999 85 83 77
-0.0316195 -0.79694 2.54672 85 83 77
-0.0446335 -0.850107 2.72647 85 83 77
-0.0558917 -0.855507 2.75371 85 83 77
-0.067486 -0.863421 2.78919 85 83 77
-0.0787892 -0.865887 2.8072 85 83 77
-0.0898961 -0.86584 2.81709 85 83 77
-0.100367 -0.860348 2.8092 85 83 77
-0.111079 -0.857787 2.81079 85 83 77
-0.122083 -0.857741 2.82059 85 83 77
-0.133477 -0.860207 2.83867 85 83 77
-0.144092 -0.857647 2.84018 85 83 77
-0.154112 -0.852157 2.83189 85 83 77
-0.164074 -0.847086 2.82487 85 83 77
1.70607 -0.617226 0.375589 6 24 54
1.70669 -0.620212 0.384305 4 21 49
1.70605 -0.622767 0.392817 8 27 55
1.70535 -0.625322 0.401386 9 30 59
1.70107 -0.626582 0.409167 10 33 69
1.70841 -0.632155 0.419841 5 29 63
1.73533 -0.645057 0.435589 4 31 64
1.78733 -0.667444 0.458136 3 30 61
1.83878 -0.689828 0.481179 13 16 37
1.85191 -0.697983 0.494639 9 14 25
1.85688 -0.703119 0.506107 5 9 14
1.85718 -0.70653 0.51643 7 11 10
1.85852 -0.710373 0.52715 10 13 16
1.85415 -0.712059 0.536333 17 24 28
1.84975 -0.713745 0.545553 26 35 34
1.84974 -0.717155 0.556149 37 49 51
1.84965 -0.720565 0.566822 37 48 52
1.85057 -0.724405 0.577915 49 59 61
1.84592 -0.726091 0.58735 48 56 58
1.85104 -0.731654 0.600005 52 56 55
1.85602 -0.737216 0.612784 51 56 52
1.86625 -0.744933 0.627502 48 53 49
1.87092 -0.750494 0.640553 42 47 43
1.87225 -0.754762 0.652612 41 47 47
1.87241 -0.758599 0.664389 40 49 48
1.87775 -0.76459 0.678162 44 52 54
1.87769 -0.768426 0.690135 41 51 53
1.87857 -0.772692 0.702586 43 53 55
1.87935 -0.776958 0.715132 39 48 52
1.88002 -0.781223 0.727774 21 31 33
1.87543 -0.783335 0.738482 13 21 28
1.87591 -0.7876 0.751292 16 25 29
1.87629 -0.791864 0.764197 17 27 29
1.87656 -0.796128 0.777198 24 34 36
1.87672 -0.800391 0.790294 29 40 39
1.87777 -0.805085 0.803916 27 33 33
1.87272 -0.807195 0.815036 30 30 31
1.85768 -0.804999 0.821808 39 39 39
1.82688 -0.795917 0.821425 25 30 46
1.8022 -0.789418 0.823535 26 52 87
1.78746 -0.787224 0.830039 4 30 70
1.78736 -0.791487 0.843375 6 33 66
1.7968 -0.800052 0.86144 4 31 64
1.82815 -0.818515 0.890465 6 30 62
1.86572 -0.839987 0.923211 3 17 34
1.88849 -0.855003 0.949271 2 14 24
1.90617 -0.867866 0.973252 5 14 23
1.9301 -0.883739 1.00093 6 13 22
1.94989 -0.89789 1.027 30 39 37
1.97583 -0.915051 1.05686 24 30 29
1.98934 -0.926617 1.08058 10 19 18
1.99062 -0.93259 1.09797 24 30 29
1.99175 -0.938563 1.1155 32 38 37
1.99364 -0.944965 1.13368 26 32 31
1.98815 -0.947926 1.14783 29 35 34
1.98976 -0.954326 1.16626 24 30 29
1.99744 -0.963737 1.18854 2 6 5
1.99869 -0.970136 1.20729 2 7 3
2.00066 -0.976964 1.22672 2 7 3
1.99457 -0.979922 1.24141 1 5 4
1.98929 -0.98331 1.2567 2 7 3
1.977 -0.983258 1.26764 8 9 6
1.95784 -0.979767 1.27411 17 21 20
1.93279 -0.973266 1.27656 24 35 48
1.92062 -0.973215 1.28739 5 27 54
1.90846 -0.973163 1.29822 0 11 29
1.90885 -0.979559 1.31772 4 12 26
1.90992 -0.986383 1.33795 6 32 72
1.90421 -0.989769 1.35363 22 60 105
1.91155 -1.00003 1.37887 2 23 52
1.93332 -1.01803 1.41509 0 16 35
1.95545 -1.03645 1.45232 0 15 34
1.97068 -1.05143 1.4851 4 20 37
1.99433 -1.07114 1.52494 30 39 50
2.00318 -1.08311 1.55413 44 52 59
2.01252 -1.09552 1.58421 34 43 47
2.0145 -1.10405 1.60892 38 48 50
2.02404 -1.11688 1.64014 37 45 47
2.04177 -1.13443 1.67864 18 24 24
2.06059 -1.15284 1.71881 13 16 19
2.07971 -1.17168 1.76004 12 15 18
2.09079 -1.18622 1.79519 13 16 19
2.09324 -1.19603 1.82346 15 18 21
2.08723 -1.20112 1.8447 14 15 23
2.06331 -1.1959 1.85011 13 19 33
2.03952 -1.19069 1.8554 14 32 57
2.02462 -1.19062 1.86867 7 27 52
2.03508 -1.20559 1.90569 3 19 43
2.07251 -1.23686 1.96901 5 20 39
2.12129 -1.27544 2.04473 12 17 28
2.17335 -1.31658 2.12548 23 23 24
2.19766 -1.3414 2.18062 30 31 28
2.20181 -1.35421 2.21665 36 34 28
2.18485 -1.35414 2.23174 39 36 26
2.15759 -1.34763 2.23615 35 31 24
2.12027 -1.33468 2.22967 26 24 18
2.09409 -1.3286 2.23444 24 25 22
2.07745 -1.32853 2.24925 21 26 22
2.07014 -1.33447 2.2743 15 23 37
2.05342 -1.3344 2.28918 10 25 39
2.04654 -1.34076 2.31517 7 22 43
2.03949 -1.34713 2.3413 20 44 76
2.04194 -1.35992 2.37884 19 32 45
2.02491 -1.35985 2.394 26 26 27
1.98887 -1.34691 2.38637 101 92 79
1.94437 -1.32797 2.36774 122 114 98
1.90096 -1.30945 2.34946 124 117 99
1.85924 -1.2918 2.33232 123 115 99
1.15711 -0.810977 1.47333 122 114 98
1.13058 -0.799355 1.46121 73 64 53
1.11455 -0.795025 1.46224 39 27 18
1.10161 -0.792839 1.46714 38 29 18
1.09167 -0.792796 1.47598 35 26 13
1.08466 -0.794898 1.48884 38 29 16
1.0776 -0.796999 1.50175 35 26 13
1.07393 -0.801673 1.51958 36 27 16
1.05762 -0.796915 1.51954 35 26 15
1.03636 -0.788299 1.51199 37 27 18
1.00973 -0.775398 1.49598 35 25 16
0.986194 -0.764641 1.48384 39 30 19
0.971681 -0.760743 1.48484 39 27 18
0.962144 -0.760703 1.49333 37 27 18
0.952606 -0.760662 1.50183 37 28 17
0.945725 -0.762765 1.51457 36 27 14
0.933531 -0.760582 1.51881 37 28 15
0.91202 -0.750686 1.50751 37 28 15
0.883545 -0.734793 1.48388 37 28 15
0.856996 -0.720188 1.4625 39 29 20
0.841406 -0.71458 1.45917 36 26 17
0.832443 -0.714542 1.46715 39 30 19
0.827923 -0.718359 1.48309 38 29 18
0.820866 -0.720034 1.49467 37 28 17
0.815697 -0.723423 1.50986 37 27 18
0.810919 -0.727239 1.52603 38 28 19
0.806045 -0.731054 1.54228 38 29 18
0.796873 -0.731016 1.55045 40 29 18
0.789547 -0.73269 1.56227 39 28 17
0.782177 -0.734363 1.57413 41 32 21
0.772962 -0.734324 1.58233 41 32 21
0.757958 -0.728719 1.57848 41 32 21
0.743092 -0.723114 1.5745 37 28 17
0.724891 -0.714086 1.5629 42 33 22
0.707344 -0.705486 1.55205 41 32 21
0.692979 -0.699883 1.54763 38 28 19
0.680846 -0.696422 1.54784 41 31 22
0.670451 -0.694673 1.5518 45 36 25
0.660099 -0.692924 1.55572 40 29 18
0.650193 -0.691603 1.56056 50 39 28
0.64151 -0.691566 1.5683 41 31 22
0.63126 -0.689817 1.57213 41 31 22
0.619508 -0.686357 1.572 44 35 24
0.606319 -0.681186 1.56785 44 34 25
0.593635 -0.676444 1.56458 45 35 26
0.579588 -0.66999 1.55723 46 36 27
0.56862 -0.666959 1.55773 49 40 29
0.560243 -0.666924 1.56518 42 32 23
0.554344 -0.669883 1.5797 44 34 25
0.549764 -0.674552 1.59834 44 35 24
0.547812 -0.682643 1.62524 41 32 21
0.547007 -0.692444 1.6564 45 36 25
0.5546 -0.713363 1.71451 46 36 27
0.569845 -0.744971 1.79891 45 35 26
0.594911 -0.790688 1.91825 28 21 11
0.626737 -0.84709 2.06467 26 20 13
0.650925 -0.894934 2.19142 28 24 17
0.66474 -0.929946 2.28768 33 30 27
0.659659 -0.939302 2.32133 27 25 25
0.654341 -0.948658 2.35519 26 25 22
0.655446 -0.967844 2.41378 12 10 10
0.656634 -0.987884 2.47495 19 16 13
0.660385 -1.01262 2.54839 41 39 39
0.652303 -1.01983 2.57809 43 41 41
0.637071 -1.01593 2.57974 56 54 54
0.617732 -1.0052 2.56386 57 55 55
0.598662 -0.994458 2.54774 54 52 52
0.584144 -0.990986 2.55008 56 60 59
0.573655 -0.994352 2.57 45 45 34
0.563081 -0.997717 2.59001 42 41 38
0.554542 -1.00493 2.62012 35 32 29
0.549738 -1.0194 2.66941 36 32 25
0.542768 -1.03045 2.71004 58 62 51
0.533541 -1.03766 2.74076 80 81 68
0.52049 -1.0376 2.75238 92 89 79
0.505558 -1.03371 2.75376 87 87 76
0.490926 -1.03023 2.75619 93 87 85
0.472814 -1.01907 2.7379 95 87 85
0.456716 -1.01176 2.72972 94 87 82
0.442299 -1.00786 2.73064 91 85 78
0.429619 -1.00781 2.74193 94 87 82
0.416937 -1.00775 2.75322 88 86 80
0.402886 -1.00428 2.75514 94 89 84
0.388921 -1.00081 2.75698 87 82 77
0.372312 -0.990087 2.73867 85 83 77
0.356127 -0.979788 2.72131 85 83 77
0.342597 -0.97632 2.72276 85 83 77
0.329153 -0.972853 2.72414 85 83 77
0.315934 -0.969813 2.72664 85 83 77
0.302656 -0.966347 2.72787 85 83 77
0.288566 -0.959893 2.72056 85 83 77
0.274638 -0.95344 2.7131 85 83 77
0.26087 -0.946987 2.7055 85 83 77
0.244796 -0.931147 2.67082 85 83 77
0.159264 -0.669911 1.93674 85 83 77
0.149772 -0.665181 1.93063 85 83 77
0.14076 -0.662159 1.92939 85 83 77
0.132079 -0.660417 1.93182 85 83 77
0.124081 -0.662089 1.94423 85 83 77
0.115443 -0.660347 1.94663 85 83 77
0.107125 -0.660311 1.95403 85 83 77
0.0988077 -0.660276 1.96144 85 83 77
0.0902557 -0.658535 1.96376 85 83 77
0.0819594 -0.6585 1.97114 85 83 77
0.0741878 -0.663156 1.99263 85 83 77
0.0677375 -0.68231 2.05795 85 83 77
0.0392978 -0.639137 1.94955 85 83 77
0.0309723 -0.63356 1.93975 85 83 77
0.0228327 -0.629263 1.93376 85 83 77
0.0148314 -0.626245 1.93162 85 83 77
0.00692375 -0.624933 1.93468 85 83 77
-0.000951598 -0.62362 1.93772 85 83 77
-0.00879476 -0.622308 1.94074 85 83 77
-0.01705 -0.637619 1.99575 85 83 77
-0.0319812 -0.81275 2.55316 85 83 77
-0.0450625 -0.867256 2.73427 85 83 77
-0.0561898 -0.870193 2.75345 85 83 77
-0.0675568 -0.87526 2.77945 85 83 77
-0.0793588 -0.883735 2.81644 85 83 77
-0.0907647 -0.886244 2.83454 85 83 77
1.70944 -0.628833 0.376191 6 24 54
