ply
format ascii 1.0
comment pointcloud saved from PyCharm
element vertex 1294
property float32 x
property float32 y
property float32 z
property uchar blue
property uchar green
property uchar red
end_header
0.442223 1.00971 -3.87465 226 229 232
0.46821 1.01537 -3.88382 225 229 229
0.497261 1.02684 -3.91498 219 217 218
0.526978 1.03858 -3.94692 219 222 225
0.554302 1.04481 -3.95766 225 228 231
0.581755 1.05075 -3.96721 231 222 224
0.609637 1.05698 -3.97766 232 222 220
0.645261 1.07565 -4.03462 246 239 241
0.682261 1.09514 -4.09424 251 255 252
0.716229 1.10857 -4.13074 254 255 252
0.73305 1.09545 -4.06835 254 255 252
0.75385 1.08897 -4.03084 254 255 252
0.774541 1.08276 -3.9945 254 255 252
0.809233 1.09591 -4.02951 254 255 252
0.834628 1.09606 -4.01657 254 255 252
0.875651 1.11614 -4.07638 254 255 252
0.918268 1.13705 -4.13874 254 255 252
0.950352 1.14412 -4.15042 254 255 252
0.976849 1.14428 -4.13691 254 255 252
0.990968 1.13032 -4.07253 254 255 252
1.01714 1.13048 -4.05919 254 254 243
1.03718 1.12399 -4.02207 255 255 239
1.05664 1.11723 -3.98412 247 227 213
1.0825 1.11738 -3.97094 224 210 206
1.11522 1.12446 -3.98229 220 207 206
1.13421 1.11769 -3.94458 207 197 195
1.15316 1.1112 -3.90801 156 149 150
1.1577 1.0914 -3.82497 110 106 112
1.18294 1.09155 -3.81211 101 97 108
1.20818 1.0917 -3.79924 91 93 103
1.23342 1.09186 -3.78637 90 92 102
1.274 1.10532 -3.8195 87 93 100
1.30738 1.11213 -3.8294 84 91 100
1.34106 1.11894 -3.83914 84 90 97
1.36691 1.1191 -3.82596 82 88 95
1.4014 1.12619 -3.8364 80 88 95
1.45379 1.14716 -3.89378 76 88 96
1.50858 1.16924 -3.95443 74 86 94
1.54542 1.1769 -3.96592 75 86 99
1.54293 1.15485 -3.8775 73 81 95
1.53148 1.12697 -3.77009 71 80 91
1.52949 1.10686 -3.68927 71 80 91
1.53631 1.09368 -3.63197 68 80 90
1.57107 1.1005 -3.64116 64 76 86
1.62547 1.12065 -3.69415 64 76 86
1.69226 1.14859 -3.77222 62 71 82
1.77406 1.18571 -3.87964 60 72 82
1.81281 1.19338 -3.89016 60 71 84
1.85233 1.20133 -3.90141 56 67 80
1.89221 1.20928 -3.91247 58 70 78
1.92009 1.20945 -3.89826 54 66 74
1.94797 1.20962 -3.88404 54 66 74
1.96314 1.202 -3.84492 58 70 80
1.92819 1.16433 -3.71026 61 74 87
1.85041 1.10218 -3.49877 66 79 92
1.77022 1.04029 -3.28963 71 84 97
1.76444 1.02318 -3.22306 70 88 100
1.81815 1.04058 -3.26519 74 92 104
1.87365 1.05854 -3.30866 77 92 106
1.93146 1.07734 -3.3543 79 94 108
1.96739 1.08361 -3.36066 80 96 108
1.99233 1.08376 -3.34794 85 100 114
1.99396 1.07138 -3.29666 90 106 118
1.99553 1.05927 -3.24653 96 109 122
2.0199 1.05942 -3.23411 101 115 125
2.03299 1.05371 -3.20389 103 117 125
2.02242 1.03603 -3.13752 103 112 123
1.99066 1.00802 -3.04048 98 110 120
1.96095 0.981683 -2.94911 109 121 131
1.95255 0.966487 -2.89173 110 122 132
1.97477 0.966621 -2.8804 105 117 127
1.99699 0.966754 -2.86907 94 105 118
2.0297 0.971908 -2.87258 90 104 114
2.05203 0.972043 -2.8612 113 122 133
2.06366 0.967156 -2.83509 113 122 133
2.08588 0.96729 -2.82376 114 123 134
2.07527 0.952356 -2.76863 113 122 131
2.0658 0.938255 -2.71628 113 122 131
2.03582 0.915218 -2.6385 115 124 133
2.01669 0.897479 -2.5765 119 128 137
1.98977 0.876663 -2.50614 122 129 138
1.96317 0.856401 -2.43785 118 127 136
1.93822 0.83725 -2.37321 118 127 136
1.92283 0.822562 -2.32163 115 124 133
1.91665 0.812061 -2.28218 113 122 131
1.91798 0.804909 -2.25235 117 126 135
1.92838 0.801667 -2.2336 115 124 133
1.94677 0.801778 -2.22423 115 124 135
1.98228 0.808876 -2.23415 117 125 132
2.01811 0.815976 -2.24391 120 127 136
2.05496 0.823358 -2.25428 120 127 136
2.08299 0.827107 -2.25457 119 127 134
2.08348 0.81995 -2.22517 116 124 131
2.08435 0.813071 -2.1967 115 124 128
2.07549 0.802553 -2.15861 116 123 132
2.07563 0.79567 -2.13051 115 123 130
2.07619 0.789064 -2.10331 116 124 131
2.07718 0.782737 -2.07702 116 124 131
2.08612 0.779486 -2.05901 115 123 130
2.07753 0.769796 -2.02415 117 125 132
2.06164 0.757584 -1.98292 117 125 132
2.03749 0.742568 -1.93469 117 125 132
2.01421 0.728108 -1.88826 116 124 131
2.00744 0.719806 -1.85807 116 125 129
2.02391 0.719906 -1.84967 115 122 131
2.04832 0.722806 -1.84844 116 122 129
2.07286 0.725708 -1.84714 116 124 131
2.08139 0.723006 -1.83158 116 124 131
2.07354 0.714697 -1.80195 115 122 126
2.06611 0.706666 -1.77322 116 122 129
2.05914 0.698914 -1.74538 114 120 127
2.05931 0.693683 -1.724 111 118 122
2.06007 0.688731 -1.70343 114 120 127
2.0606 0.683777 -1.68298 110 119 123
2.06856 0.681347 -1.66883 112 118 118
2.0764 0.678916 -1.65474 110 117 121
2.085 0.676764 -1.64139 109 118 122
2.09262 0.674332 -1.62742 107 115 122
2.10013 0.671899 -1.6135 106 115 119
2.10045 0.667219 -1.59427 102 111 115
2.09343 0.660293 -1.56982 103 112 116
2.0861 0.653364 -1.54553 104 111 115
2.09379 0.651207 -1.53264 108 116 118
2.10138 0.64905 -1.5198 110 115 118
2.10887 0.646892 -1.50702 110 115 118
2.10887 0.642486 -1.48908 110 116 116
2.10218 0.636112 -1.4667 110 116 116
2.10266 0.631985 -1.44964 108 116 118
2.08884 0.62364 -1.42305 110 117 121
2.08221 0.617542 -1.40176 113 117 122
2.08198 0.61341 -1.38507 112 118 118
2.06907 0.605622 -1.36025 114 123 122
2.05677 0.598112 -1.33625 105 111 118
2.04996 0.592289 -1.31618 100 107 111
2.04484 0.587026 -1.29749 93 101 103
2.05822 0.587106 -1.29067 95 104 102
2.06465 0.585217 -1.27954 74 81 90
2.06499 0.58164 -1.26479 55 64 68
2.07221 0.580031 -1.25439 31 46 47
2.08542 0.58011 -1.24765 34 48 43
2.09863 0.58019 -1.24092 25 41 39
2.11798 0.581959 -1.23778 30 46 44
2.13123 0.582039 -1.23103 27 39 41
2.13826 0.580429 -1.22072 31 44 50
2.13163 0.575157 -1.20279 31 44 50
2.12476 0.569883 -1.18499 33 47 55
2.11871 0.56489 -1.1679 39 52 58
2.1188 0.561586 -1.1544 39 52 58
2.11874 0.558281 -1.14097 39 52 58
2.12498 0.556666 -1.13106 39 52 58
2.12465 0.55336 -1.11778 38 51 57
2.12526 0.550335 -1.10514 38 51 57
2.1312 0.548718 -1.09538 38 51 57
2.13817 0.547383 -1.08622 38 51 57
2.14396 0.545766 -1.07654 38 51 57
2.14967 0.544148 -1.0669 38 51 57
2.15643 0.542812 -1.05785 38 51 57
2.15637 0.539782 -1.04555 38 51 57
2.16183 0.538163 -1.03604 38 51 57
2.16151 0.535132 -1.02387 38 51 57
2.16793 0.533794 -1.01499 38 51 57
2.18005 0.533867 -1.00882 38 51 57
2.19217 0.53394 -1.00264 38 51 57
2.19846 0.532601 -0.993825 38 51 57
2.20352 0.530979 -0.98452 39 49 56
2.19671 0.526532 -0.970051 39 49 56
2.19681 0.523779 -0.95879 39 49 56
2.19082 0.519612 -0.945024 39 49 56
2.18464 0.515444 -0.931356 39 49 56
2.17827 0.511275 -0.917787 39 49 56
2.17776 0.508519 -0.906835 39 49 56
2.17712 0.505761 -0.895949 36 47 51
2.18247 0.504416 -0.887616 36 47 51
2.18284 0.50194 -0.877339 36 47 51
2.18804 0.500594 -0.869085 36 47 51
2.19441 0.499531 -0.861351 36 47 51
2.19324 0.496771 -0.850736 36 47 51
2.18692 0.492877 -0.838262 36 47 51
2.18168 0.489266 -0.826357 41 50 54
2.18135 0.486785 -0.816436 41 50 54
2.19747 0.487984 -0.812702 41 50 54
2.20852 0.488051 -0.807069 41 50 54
2.21442 0.486985 -0.799577 41 50 54
2.2138 0.484503 -0.789803 41 50 54
2.20786 0.480887 -0.778254 41 50 54
2.20176 0.47727 -0.76679 33 45 47
2.20731 0.476202 -0.759478 33 45 47
2.21808 0.476267 -0.753985 33 45 47
2.23416 0.477466 -0.750274 33 45 47
2.27427 0.483765 -0.754493 33 45 47
2.31467 0.490067 -0.758567 33 45 47
2.34996 0.495236 -0.760757 37 46 50
-0.50977 0.783234 -3.54719 126 115 136
-0.486791 0.776668 -3.50744 128 114 136
-0.466065 0.773306 -3.4823 131 115 137
-0.445505 0.769944 -3.45725 132 117 136
-0.432672 0.780212 -3.49331 136 118 140
-0.428995 0.808661 -3.61028 136 120 137
-0.41922 0.827761 -3.6849 143 122 140
-0.403118 0.835635 -3.70921 153 128 142
-0.384927 0.839767 -3.71676 160 132 142
-0.363058 0.835876 -3.68879 162 133 141
-0.343028 0.835997 -3.67858 178 146 155
-0.3292 0.852171 -3.7388 184 160 167
-0.32265 0.89056 -3.89579 190 167 176
-0.312275 0.923073 -4.02617 196 178 186
-0.29631 0.942746 -4.09988 202 185 191
-0.272259 0.937795 -4.06631 236 213 217
-0.248523 0.933111 -4.03403 254 254 254
-0.226186 0.933246 -4.02265 254 254 254
-0.207065 0.948111 -4.07457 254 254 254
-0.186407 0.958694 -4.10776 254 254 254
-0.163468 0.958832 -4.09607 254 254 254
-0.140528 0.958971 -4.08437 254 254 254
0.244148 0.940906 -3.80307 251 255 252
0.268047 0.946146 -3.81219 251 255 252
0.293674 0.956223 -3.84061 251 255 252
0.316486 0.95636 -3.82899 227 243 246
0.343015 0.966979 -3.85919 226 237 250
0.370045 0.977601 -3.88914 223 227 241
0.397682 0.988495 -3.9199 219 226 230
0.418959 0.983259 -3.88663 237 236 240
0.444818 0.988779 -3.89587 251 255 254
0.471061 0.994568 -3.90604 251 255 254
0.500248 1.00574 -3.93713 243 247 246
0.527158 1.01153 -3.94695 219 224 227
0.554483 1.0176 -3.95769 223 226 229
0.581937 1.0234 -3.96724 232 228 228
0.60982 1.02946 -3.97769 237 236 233
0.649262 1.05384 -4.0585 246 250 250
0.686585 1.0731 -4.11907 247 255 255
0.716421 1.07972 -4.13077 244 253 251
0.728798 1.06048 -4.04374 226 228 233
0.745231 1.04825 -3.98379 213 213 214
0.765823 1.04247 -3.94862 247 238 233
0.790628 1.04262 -3.93598 254 255 252
0.824914 1.0549 -3.96896 250 251 248
0.860212 1.06771 -4.00366 214 205 200
0.912653 1.10048 -4.11259 242 232 223
0.938823 1.10064 -4.09925 254 255 249
0.964993 1.10079 -4.08591 247 239 232
0.979268 1.08774 -4.02369 214 206 199
1.00512 1.08789 -4.01051 229 216 210
1.03737 1.09479 -4.02211 253 239 222
1.05684 1.08821 -3.98415 240 224 212
1.08269 1.08836 -3.97097 220 209 203
1.11542 1.09526 -3.98232 216 209 204
1.12765 1.0822 -3.92114 208 200 198
1.13265 1.06292 -3.83787 150 144 142
1.12466 1.03256 -3.71525 109 105 111
1.14257 1.02677 -3.68146 99 100 108
1.18045 1.0388 -3.71148 94 95 103
1.21231 1.04516 -3.72102 88 91 99
1.24415 1.05125 -3.72946 84 90 97
1.28409 1.06383 -3.76067 85 93 100
1.31731 1.07047 -3.77065 84 92 99
1.35084 1.0771 -3.78047 84 92 99
1.39296 1.09023 -3.81281 82 89 98
1.43605 1.10363 -3.84578 80 87 96
1.48049 1.11758 -3.88031 75 84 93
1.51646 1.12477 -3.89113 77 86 95
1.51456 1.1041 -3.80576 75 84 95
1.50413 1.07803 -3.70233 71 83 93
1.50243 1.05898 -3.62359 72 81 92
1.51855 1.05291 -3.58958 68 77 86
1.55262 1.05928 -3.598 66 75 86
1.60632 1.07864 -3.65023 63 75 85
1.66176 1.09855 -3.70382 61 73 83
1.74058 1.13309 -3.80603 62 74 84
1.82483 1.17007 -3.91557 60 71 84
1.8894 1.19352 -3.97908 59 71 81
1.93027 1.20154 -3.99076 53 67 77
1.97195 1.20984 -4.00314 52 66 76
1.98714 1.20189 -3.96176 54 68 78
1.97606 1.17849 -3.86987 59 71 81
1.91642 1.12717 -3.68725 64 76 86
1.8179 1.05471 -3.43699 68 82 92
1.75099 1.00228 -3.25359 68 87 96
1.75501 0.991308 -3.20557 71 90 99
1.79839 1.00256 -3.22942 74 93 102
1.85264 1.01952 -3.27128 77 95 107
1.90919 1.03729 -3.31533 79 97 109
1.95645 1.04964 -3.34169 81 99 111
1.98126 1.04979 -3.32905 84 102 114
1.99414 1.0437 -3.2967 88 106 118
2.00725 1.03788 -3.26535 98 110 120
2.03177 1.03803 -3.25285 102 114 124
2.05628 1.03818 -3.24035 105 117 127
2.03402 1.01498 -3.15528 101 113 123
2.01285 0.992861 -3.07413 97 111 121
1.96112 0.956345 -2.94914 107 121 131
1.95271 0.941545 -2.89176 109 123 133
1.98519 0.946567 -2.89539 106 120 130
2.00753 0.946702 -2.884 91 103 113
2.02986 0.946837 -2.87261 94 106 116
2.0522 0.946971 -2.86123 112 120 134
2.07454 0.947106 -2.84984 114 122 136
2.09688 0.94724 -2.83845 113 122 133
2.07543 0.927802 -2.76866 113 122 133
2.05552 0.909446 -2.70257 113 122 133
2.03598 0.891628 -2.63853 115 124 135
2.00744 0.87027 -2.56451 117 124 133
1.97091 0.845914 -2.48222 119 126 135
1.94539 0.826719 -2.41562 119 127 134
1.92091 0.808336 -2.35186 117 124 133
1.93146 0.804913 -2.33191 115 122 131
1.93328 0.797951 -2.30183 116 123 132
1.93542 0.79126 -2.27271 116 124 131
1.94532 0.787833 -2.25309 114 124 131
1.96387 0.787944 -2.24363 116 124 131
1.98242 0.788056 -2.23418 119 127 134
2.01825 0.794977 -2.24394 122 128 135
2.04603 0.79863 -2.24435 120 128 135
2.05567 0.795202 -2.22487 120 128 135
2.05661 0.788503 -2.19635 119 127 134
2.05724 0.781803 -2.16801 117 126 130
2.06694 0.778643 -2.14961 115 123 130
2.07577 0.77521 -2.13053 115 124 128
2.08516 0.772048 -2.11229 116 125 129
2.0944 0.768886 -2.09413 115 124 128
2.10349 0.765722 -2.07604 117 125 132
2.10411 0.759558 -2.04994 116 124 131
2.10443 0.753392 -2.02398 117 125 132
2.07911 0.738221 -1.9741 115 124 128
2.05462 0.723592 -1.92604 115 124 128
2.03881 0.712233 -1.88701 117 124 128
2.02403 0.701417 -1.8497 116 124 126
2.03257 0.698786 -1.83414 117 124 128
2.04097 0.696155 -1.81864 117 124 128
2.04925 0.693523 -1.80321 115 122 126
2.05008 0.688433 -1.78148 116 120 125
2.05066 0.683341 -1.75988 115 123 125
2.05183 0.678521 -1.73911 111 119 121
2.05193 0.673426 -1.71775 115 123 125
2.04509 0.666144 -1.69097 115 123 125
2.0455 0.661319 -1.67058 115 123 125
2.04653 0.656766 -1.65099 112 119 123
2.05421 0.654399 -1.63699 110 118 120
2.06264 0.652304 -1.62372 112 119 123
2.07793 0.652396 -1.61592 112 119 123
2.09322 0.652488 -1.60813 110 117 121
2.08554 0.645469 -1.58289 110 117 121
2.07129 0.636533 -1.55316 111 116 119
2.05752 0.627869 -1.5243 112 117 120
2.05778 0.623579 -1.50623 107 116 120
2.07239 0.623667 -1.49878 111 116 119
2.07326 0.61965 -1.48152 111 118 122
2.08777 0.619737 -1.47412 109 117 119
2.08836 0.615718 -1.45701 108 116 118
2.09529 0.613615 -1.4445 110 119 118
2.08894 0.607676 -1.42307 110 116 115
2.08895 0.603654 -1.40625 113 119 118
2.08876 0.59963 -1.38953 114 120 120
2.08934 0.595879 -1.37353 117 122 125
2.08298 0.590209 -1.35324 107 113 113
2.06369 0.580974 -1.32495 100 106 106
2.05768 0.575575 -1.30559 95 101 100
2.05832 0.572092 -1.29069 100 112 107
2.06474 0.570253 -1.27956 79 89 91
2.06509 0.566769 -1.26481 65 70 79
2.07834 0.566849 -1.25806 41 55 58
2.09159 0.566929 -1.2513 34 49 50
2.11807 0.570575 -1.25238 31 40 44
2.14472 0.574222 -1.25337 31 41 43
2.16536 0.576223 -1.2507 29 40 44
2.17155 0.574383 -1.23969 33 44 48
2.16513 0.569249 -1.22166 35 49 52
2.15112 0.562192 -1.19965 39 54 55
2.13783 0.555408 -1.1784 40 56 59
2.13166 0.550543 -1.16136 40 56 59
2.12525 0.545677 -1.14445 40 56 59
2.13153 0.544106 -1.13452 42 58 61
2.13124 0.540886 -1.12121 42 58 61
2.13733 0.539314 -1.11138 42 58 61
2.13786 0.536367 -1.09878 42 58 61
2.14377 0.534793 -1.08904 42 58 61
2.1507 0.533494 -1.0799 42 58 61
2.16314 0.533569 -1.07356 42 58 61
2.16886 0.531995 -1.06392 37 52 58
2.17449 0.530419 -1.05432 37 52 58
2.17439 0.527469 -1.04204 37 52 58
2.17414 0.524517 -1.02983 37 52 58
2.16802 0.52019 -1.01501 37 52 58
2.17438 0.518887 -1.00617 37 52 58
2.17371 0.515933 -0.994171 37 52 58
2.1799 0.514629 -0.98541 45 59 62
2.17899 0.511674 -0.97354 45 59 62
2.18502 0.510369 -0.964864 45 59 62
2.18505 0.507688 -0.953635 45 59 62
2.18495 0.505005 -0.942471 45 59 62
2.17874 0.500945 -0.928819 45 59 62
2.17836 0.498261 -0.917803 45 59 62
2.17785 0.495576 -0.906851 37 53 56
2.17721 0.492891 -0.895965 37 53 56
2.17767 0.49048 -0.885642 37 53 56
2.17678 0.487793 -0.874883 37 53 56
2.177 0.48538 -0.864681 37 53 56
2.17089 0.481589 -0.852099 37 53 56
2.1646 0.477796 -0.839608 37 53 56
2.16441 0.475382 -0.829615 42 56 59
2.1641 0.472966 -0.819681 42 56 59
2.17002 0.471929 -0.812179 42 56 59
2.18608 0.473099 -0.808474 42 56 59
2.20348 0.474544 -0.805211 42 56 59
2.20807 0.473231 -0.797267 42 56 59
2.20871 0.47109 -0.787971 42 56 59
2.20275 0.467567 -0.776435 39 55 58
2.20707 0.466252 -0.768625 39 55 58
2.20739 0.464109 -0.759492 39 55 58
2.21816 0.464174 -0.754 39 55 58
2.23424 0.465343 -0.750289 39 55 58
2.27435 0.471485 -0.754508 39 55 58
2.3201 0.478733 -0.760338 39 55 58
2.35677 0.48405 -0.762949 41 55 58
-0.50737 0.758761 -3.53149 127 112 138
-0.482299 0.748995 -3.4761 128 109 133
-0.459969 0.742865 -3.43781 134 115 139
-0.443513 0.746096 -3.44287 135 117 139
-0.434459 0.762593 -3.50889 140 120 140
-0.427008 0.783517 -3.59479 144 124 144
-0.415147 0.797943 -3.65042 151 129 141
-0.397423 0.801964 -3.6582 156 131 145
-0.377669 0.802083 -3.64813 160 131 144
-0.354547 0.794654 -3.60383 166 137 145
-0.334979 0.794772 -3.59385 181 148 154
-0.324399 0.817541 -3.68601 188 161 169
-0.317743 0.853858 -3.83846 194 172 179
-0.310481 0.893572 -4.00519 196 179 185
-0.29303 0.90777 -4.05684 207 190 196
-0.270693 0.907905 -4.04545 247 218 226
-0.249639 0.91273 -4.0549 254 254 254
-0.229586 0.922507 -4.08616 254 254 254
-0.209176 0.932808 -4.11949 254 254 254
-0.187225 0.937899 -4.1296 254 254 254
-0.164163 0.938038 -4.11785 254 254 254
-0.140357 0.933223 -4.08441 254 254 254
-0.118041 0.938316 -4.09433 254 254 254
-0.0949791 0.938455 -4.08258 254 254 254
-0.071538 0.933637 -4.04933 254 254 254
-0.0485985 0.933776 -4.03763 254 254 254
-0.025795 0.938872 -4.04731 254 254 254
-0.00273359 0.939011 -4.03556 254 254 254
0.0203279 0.939149 -4.0238 254 254 254
0.0433892 0.939288 -4.01204 254 254 254
0.0664507 0.939427 -4.00029 251 255 254
0.0895121 0.939566 -3.98853 251 255 254
0.112573 0.939705 -3.97678 251 255 252
0.135635 0.939844 -3.96502 251 255 252
0.158696 0.939983 -3.95327 251 255 252
0.181757 0.940122 -3.94151 251 255 252
0.204819 0.940261 -3.92975 251 255 252
0.227881 0.9404 -3.918 251 255 252
0.249617 0.935572 -3.88562 251 255 252
0.27545 0.945645 -3.91505 251 255 252
0.300285 0.951014 -3.92482 251 255 252
0.325376 0.956385 -3.93445 246 255 251
0.350723 0.961758 -3.94396 233 242 246
0.376428 0.967393 -3.9544 229 238 247
0.402294 0.972769 -3.96364 227 235 242
0.423833 0.967679 -3.93023 251 255 255
0.449955 0.973056 -3.93934 251 255 254
0.476462 0.978696 -3.94937 251 255 254
0.506182 0.990098 -3.98244 251 255 254
0.533368 0.995742 -3.99213 249 255 254
0.56097 1.00165 -4.00272 251 255 254
0.585486 1.0018 -3.99022 251 255 254
0.613511 1.00771 -4.00061 251 255 252
0.653264 1.0317 -4.08237 249 255 252
0.686775 1.04443 -4.11911 247 255 252
0.712324 1.04458 -4.10609 239 252 251
0.724729 1.02613 -4.02016 222 235 241
0.745417 1.02025 -3.98382 216 216 217
0.761455 1.0086 -3.92519 240 237 234
0.790813 1.01478 -3.93601 254 255 250
0.820254 1.0207 -3.94567 228 225 222
0.860401 1.03921 -4.00369 198 191 193
0.901893 1.05825 -4.06327 219 212 213
0.933499 1.06497 -4.07519 253 249 249
0.959515 1.06512 -4.06193 223 216 211
0.967807 1.04612 -3.97585 196 193 190
0.993355 1.04627 -3.96283 204 200 200
1.03117 1.05903 -3.99737 234 226 219
1.05703 1.05918 -3.98419 227 213 209
1.08288 1.05934 -3.97101 207 203 203
1.10874 1.0595 -3.95783 206 202 202
1.11435 1.04074 -3.87424 199 195 195
1.1196 1.0225 -3.79308 144 142 143
1.11838 0.999266 -3.69391 107 104 113
1.14275 0.999413 -3.68149 99 100 108
1.17388 1.00534 -3.69029 94 95 103
1.20529 1.01127 -3.69894 91 94 102
1.2373 1.01747 -3.70841 88 94 101
1.2621 1.01762 -3.69577 82 90 97
1.30187 1.0296 -3.72595 85 93 100
1.33476 1.0358 -3.73498 84 92 99
1.37658 1.04858 -3.76748 82 90 97
1.43625 1.07426 -3.84582 77 87 94
1.48069 1.08784 -3.88035 75 84 93
1.49807 1.08142 -3.84346 77 86 95
1.48768 1.05552 -3.73776 78 87 96
1.47752 1.03066 -3.63641 70 82 90
1.48535 1.01896 -3.58197 69 78 87
1.50118 1.01306 -3.54811 70 79 88
1.53496 1.01926 -3.55668 68 77 88
1.58717 1.03732 -3.60631 66 75 86
1.64189 1.05644 -3.65914 65 74 85
1.71916 1.08927 -3.75879 63 75 85
1.80182 1.12448 -3.86578 61 73 83
1.90204 1.16945 -4.00529 59 71 81
1.97007 1.19361 -4.07265 55 67 75
1.99909 1.19379 -4.05785 54 66 74
2.00079 1.17788 -3.98859 55 67 77
1.98945 1.15484 -3.89571 60 72 82
1.94103 1.11123 -3.73426 63 75 85
1.85079 1.04518 -3.49884 67 82 96
1.79094 0.997837 -3.32752 70 85 99
1.78447 0.981095 -3.25907 69 87 99
1.81851 0.986781 -3.26526 75 93 105
1.86366 0.998276 -3.29045 78 94 106
1.90937 1.00977 -3.31537 79 95 107
1.95664 1.0218 -3.34173 81 99 111
1.99271 1.02776 -3.34801 83 101 113
2.00625 1.0221 -3.31644 90 107 116
2.01898 1.01618 -3.28416 95 112 121
2.04364 1.01632 -3.27159 103 115 123
2.05647 1.01066 -3.24038 105 117 127
2.02277 0.982531 -3.13759 101 113 123
2.01302 0.966552 -3.07416 99 111 121
1.99303 0.946075 -2.9969 109 121 131
2.01597 0.946213 -2.98521 110 121 134
2.01669 0.936039 -2.94111 109 120 133
2.01806 0.926391 -2.89893 93 106 119
2.03003 0.921765 -2.87264 94 107 120
2.05237 0.921899 -2.86126 112 124 134
2.0747 0.922034 -2.84987 115 124 135
2.07538 0.912643 -2.80916 110 122 132
2.05492 0.89425 -2.74111 114 123 134
2.04523 0.880882 -2.68886 113 121 135
2.01626 0.859567 -2.61281 115 124 135
2.00759 0.847249 -2.56454 114 123 134
1.98057 0.827512 -2.49422 119 126 135
1.9545 0.808564 -2.42678 120 127 136
1.94756 0.797822 -2.38435 116 124 131
1.94923 0.790785 -2.35322 115 122 131
1.95913 0.787191 -2.33248 114 123 132
1.96952 0.783861 -2.31261 115 124 133
1.96226 0.773639 -2.27258 116 124 131
1.98097 0.773751 -2.26304 117 125 132
1.99968 0.773864 -2.2535 119 127 134
2.02738 0.777424 -2.25396 117 125 132
2.02873 0.770907 -2.22524 120 128 135
2.02905 0.764124 -2.19593 119 127 134
2.02122 0.75442 -2.15843 119 127 134
2.03084 0.751346 -2.14007 116 124 131
2.04899 0.751455 -2.13082 117 125 132
2.06714 0.751565 -2.12157 115 123 130
2.0853 0.751674 -2.11231 119 126 130
2.10345 0.751784 -2.10306 116 125 129
2.10362 0.745521 -2.07606 117 125 132
2.11331 0.742708 -2.05879 118 124 131
2.11295 0.736443 -2.03207 118 124 131
2.11305 0.730441 -2.00623 117 124 128
2.09658 0.718858 -1.96529 118 126 128
2.07955 0.707272 -1.92463 118 124 131
2.05566 0.693557 -1.87851 119 125 132
2.03269 0.680369 -1.83416 116 124 126
2.01788 0.670101 -1.79798 118 123 126
2.01871 0.665148 -1.77625 118 122 127
2.02743 0.662851 -1.76172 114 121 125
2.03603 0.660554 -1.74724 116 123 127
2.04369 0.657991 -1.73213 116 123 127
2.04456 0.653298 -1.7115 115 124 128
2.0452 0.648604 -1.69099 119 128 127
2.04561 0.643909 -1.6706 120 125 128
2.03898 0.637083 -1.64483 118 123 126
2.04746 0.635047 -1.63154 115 123 125
2.05497 0.632743 -1.61762 114 122 124
2.06324 0.630705 -1.60443 115 122 126
2.07053 0.6284 -1.59062 112 116 121
2.06356 0.621833 -1.56615 112 119 123
2.04292 0.611269 -1.53182 111 118 122
2.03701 0.605231 -1.50904 110 118 120
2.04435 0.603188 -1.49633 112 117 120
2.05158 0.601143 -1.48367 109 118 117
2.06604 0.60123 -1.4763 110 119 118
2.07405 0.599452 -1.46437 115 123 125
2.08103 0.597406 -1.45184 111 119 121
2.08885 0.595626 -1.44001 113 119 119
2.08905 0.591712 -1.42309 110 119 118
2.09569 0.589665 -1.41074 110 119 118
2.10318 0.587883 -1.39907 114 120 120
2.11058 0.586101 -1.38745 119 122 125
2.10339 0.580315 -1.36645 102 110 112
2.08326 0.57106 -1.33747 96 100 105
2.06366 0.562068 -1.30934 91 97 96
2.06433 0.558679 -1.29442 101 112 104
2.06484 0.55529 -1.27958 83 91 93
2.06519 0.551899 -1.26483 65 74 78
2.0724 0.550376 -1.25442 43 59 62
2.08561 0.550456 -1.24769 37 53 51
2.11817 0.555611 -1.2524 37 49 51
2.14482 0.559164 -1.25339 33 43 50
2.16546 0.561115 -1.25072 31 47 50
2.17892 0.561197 -1.24385 33 47 50
2.18507 0.559407 -1.23287 30 45 51
2.17117 0.552537 -1.2108 23 37 45
2.15061 0.544062 -1.18541 26 40 43
2.13813 0.537723 -1.16486 26 40 43
2.13819 0.534592 -1.15137 26 40 43
2.14454 0.533064 -1.14141 28 39 43
2.14433 0.529931 -1.12806 28 39 43
2.15702 0.530007 -1.12159 28 39 43
2.15658 0.526873 -1.10836 28 39 43
2.16259 0.525343 -1.09857 28 39 43
2.16963 0.524081 -1.08938 28 39 43
2.18218 0.524156 -1.08298 28 39 43
2.188 0.522625 -1.07328 27 38 42
2.18811 0.519755 -1.06089 27 38 42
2.18695 0.516616 -1.04803 27 38 42
2.18107 0.512405 -1.03309 27 38 42
2.16811 0.506585 -1.01503 27 38 42
2.16178 0.502372 -1.00031 27 38 42
2.15525 0.498156 -0.985704 27 38 42
2.14968 0.494208 -0.971725 35 46 50
2.14978 0.491599 -0.960464 35 46 50
2.16153 0.49167 -0.954471 35 46 50
2.16144 0.489059 -0.943308 35 46 50
2.16717 0.487789 -0.934779 35 46 50
2.17284 0.486518 -0.926282 35 46 50
2.17243 0.483906 -0.915282 35 46 50
2.17188 0.481292 -0.904347 32 46 49
2.17121 0.478679 -0.893477 32 46 49
2.16552 0.47499 -0.880682 32 46 49
2.16579 0.472643 -0.87045 32 46 49
2.15977 0.468953 -0.857822 32 46 49
2.1486 0.464188 -0.843335 32 46 49
2.1422 0.460496 -0.830903 32 46 49
2.14314 0.458414 -0.82145 37 51 54
2.15408 0.45848 -0.815872 37 51 54
2.16503 0.458545 -0.810295 37 51 54
2.18107 0.459686 -0.806604 37 51 54
2.19203 0.459752 -0.801013 37 51 54
2.19785 0.458743 -0.793563 37 51 54
2.19714 0.45639 -0.783832 37 51 54
2.20283 0.45538 -0.77645 37 53 56
2.20715 0.454101 -0.76864 37 53 56
2.21272 0.453091 -0.761314 37 53 56
2.22352 0.453156 -0.755809 37 53 56
2.25156 0.456718 -0.756092 37 53 56
2.2851 0.461357 -0.758059 37 53 56
2.33224 0.468687 -0.764302 37 53 56
2.36223 0.472522 -0.764707 39 56 57
-0.507231 0.737761 -3.53151 131 112 138
-0.484337 0.731555 -3.49181 132 114 136
-0.463696 0.728379 -3.46671 135 115 135
-0.447239 0.731778 -3.4729 137 116 139
-0.43817 0.748075 -3.54004 146 124 144
-0.428706 0.765136 -3.61034 147 127 142
-0.415 0.775878 -3.65044 154 130 142
-0.395342 0.775996 -3.64042 161 132 145
-0.37397 0.772572 -3.61383 166 137 150
-0.352776 0.769147 -3.58733 171 142 150
-0.334833 0.772808 -3.59388 183 152 158
-0.3227 0.791154 -3.66842 191 164 172
-0.314487 0.822166 -3.80103 196 173 182
-0.305614 0.85572 -3.94451 202 182 189
-0.289838 0.87358 -4.01496 215 194 198
-0.267732 0.873713 -4.00369 254 223 229
-0.249471 0.887528 -4.05493 254 254 254
-0.229417 0.897039 -4.08619 254 254 254
-0.210114 0.911876 -4.14139 254 254 254
-0.18804 0.916831 -4.15144 254 254 254
-0.163991 0.912153 -4.11788 254 254 254
-0.14093 0.912292 -4.10612 254 254 254
-0.117869 0.912431 -4.09437 254 254 254
-0.0948071 0.91257 -4.08261 254 254 254
-0.0713668 0.907889 -4.04936 254 254 254
-0.0484272 0.908028 -4.03766 254 254 254
-0.0256229 0.912987 -4.04734 254 254 254
-0.00256149 0.913126 -4.03559 254 254 254
0.0205 0.913265 -4.02383 254 254 254
0.0435613 0.913404 -4.01208 254 254 254
0.0666228 0.913543 -4.00032 254 254 254
0.0896842 0.913682 -3.98856 251 255 252
0.112746 0.913821 -3.97681 251 255 252
0.135807 0.91396 -3.96505 251 255 252
0.158868 0.914099 -3.9533 251 255 252
0.18193 0.914237 -3.94154 251 255 252
0.204991 0.914376 -3.92979 251 255 252
0.228053 0.914515 -3.91803 251 255 252
0.251114 0.914654 -3.90627 251 255 252
0.277147 0.924709 -3.93673 251 255 252
0.303763 0.935021 -3.96802 251 255 252
0.330981 0.94559 -4.00011 251 255 252
0.354811 0.945734 -3.98797 246 253 249
0.38078 0.95122 -3.99827 240 244 249
0.404746 0.951364 -3.98606 243 250 254
0.428711 0.951509 -3.97384 249 255 254
0.455218 0.956998 -3.98387 249 255 254
0.482122 0.962743 -3.99483 249 255 254
0.51212 0.973837 -4.02775 249 255 254
0.536637 0.973985 -4.01525 249 255 254
0.564381 0.979735 -4.02578 249 255 254
0.589038 0.979884 -4.01321 249 255 254
0.617364 0.985892 -4.02456 249 255 254
0.64582 0.991647 -4.03472 249 255 252
0.678693 1.00352 -4.06954 249 255 252
0.699823 0.997809 -4.03298 244 255 251
0.720657 0.992097 -3.99657 243 255 252
0.750009 0.998111 -4.0074 249 255 252
0.770549 0.992398 -3.97114 249 255 252
0.795495 0.992548 -3.95842 249 255 252
0.830137 1.00443 -3.99234 235 233 233
0.860591 1.01071 -4.00373 200 200 201
0.907677 1.03561 -4.08849 217 215 216
0.933693 1.03576 -4.07523 242 237 241
0.953798 1.02954 -4.03695 219 216 220
0.967997 1.01744 -3.97589 189 189 190
0.993545 1.0176 -3.96286 196 195 199
1.03137 1.03001 -3.99741 220 218 218
1.05722 1.03016 -3.98423 215 211 211
1.08308 1.03032 -3.97104 203 201 201
1.10234 1.02434 -3.93432 200 200 201
1.10778 1.0061 -3.85081 194 191 195
1.11979 0.994502 -3.79311 144 139 148
1.1315 0.983152 -3.73669 102 103 111
1.16307 0.989179 -3.74638 100 101 109
1.18787 0.989329 -3.73374 97 98 106
1.21957 0.995103 -3.74225 93 96 104
1.24452 0.995253 -3.72953 90 93 101
1.27697 1.00129 -3.73878 84 90 97
1.31769 1.01346 -3.77072 84 91 100
1.35122 1.01975 -3.78054 84 91 100
1.40198 1.03858 -3.83651 81 89 96
1.45439 1.05794 -3.89389 77 86 97
1.4902 1.06475 -3.90479 78 87 96
1.49826 1.05185 -3.8435 79 86 97
1.48787 1.02667 -3.73779 75 84 93
1.48639 1.00838 -3.65781 72 81 90
1.48553 0.991122 -3.58201 72 81 92
1.51034 0.991271 -3.56936 71 80 89
1.55299 1.00295 -3.59807 66 78 86
1.6067 1.02129 -3.6503 66 78 86
1.66215 1.04015 -3.70389 60 74 84
1.71935 1.05953 -3.75882 61 75 85
1.79062 1.08686 -3.84135 60 72 82
1.88982 1.1301 -3.97915 60 72 82
1.97029 1.16104 -4.07269 55 67 75
1.99931 1.16121 -4.05789 55 68 74
2.00101 1.14574 -3.98863 57 66 75
1.98966 1.12334 -3.89575 60 72 82
1.96612 1.09477 -3.78216 64 78 88
1.91965 1.05439 -3.62869 64 81 90
1.87637 1.01683 -3.48593 65 84 93
1.86816 0.99901 -3.41162 68 88 100
1.87122 0.987608 -3.35961 72 92 104
1.88504 0.982108 -3.3279 79 95 107
1.92054 0.987905 -3.33447 80 96 108
1.96795 0.999611 -3.36076 81 99 111
2.01645 1.01158 -3.38761 82 101 110
2.04169 1.01173 -3.37475 91 108 117
2.04278 1.00006 -3.32261 99 113 123
2.04382 0.988648 -3.27162 101 115 125
2.05665 0.983142 -3.24042 104 118 128
2.01207 0.950642 -3.12075 96 109 122
2.00219 0.935101 -3.05738 102 113 126
2.00378 0.925213 -3.01284 108 120 130
2.02684 0.925352 -3.00109 113 125 135
2.03908 0.920603 -2.97355 111 123 133
2.02918 0.906078 -2.91468 95 106 119
2.0302 0.896693 -2.87268 95 107 117
2.04193 0.892196 -2.84651 115 124 133
2.05344 0.887697 -2.82046 118 127 138
2.04365 0.874187 -2.76603 114 123 134
2.02406 0.856811 -2.69977 114 123 134
2.01528 0.844322 -2.6493 119 126 137
2.00648 0.832087 -2.59996 117 124 135
2.00774 0.824228 -2.56456 117 124 133
1.99022 0.808895 -2.50622 120 127 136
1.98218 0.797679 -2.46098 120 127 136
1.97422 0.786718 -2.41683 114 123 132
1.9755 0.77962 -2.38478 116 124 131
1.98631 0.776386 -2.36469 112 119 128
1.9963 0.772893 -2.3439 113 122 131
2.00677 0.769657 -2.32399 114 124 131
2.02591 0.769772 -2.31423 115 125 132
2.03545 0.766276 -2.29367 117 125 132
2.03651 0.759684 -2.26398 117 125 132
2.02887 0.749994 -2.22527 120 128 135
2.00312 0.73385 -2.16775 119 126 135
1.99577 0.724669 -2.13114 119 127 134
2.00588 0.721938 -2.11365 119 126 130
2.01512 0.718949 -2.09548 117 125 132
2.04173 0.722154 -2.09537 116 124 131
2.05966 0.722262 -2.08623 116 124 131
2.07759 0.72237 -2.07709 117 126 130
2.07753 0.716279 -2.05021 119 125 132
2.07793 0.710444 -2.02422 121 127 134
2.08717 0.707708 -2.00718 118 125 129
2.09627 0.704971 -1.9902 116 124 131
2.09671 0.699391 -1.96531 117 124 128
2.08827 0.690965 -1.93261 119 126 130
2.07233 0.680209 -1.89365 118 124 131
2.04075 0.664538 -1.84135 119 126 130
2.0108 0.649637 -1.79158 119 126 130
2.0043 0.642492 -1.7635 116 122 129
2.01209 0.640001 -1.74831 119 123 128
2.02057 0.637768 -1.7339 116 122 129
2.03637 0.637863 -1.72585 117 124 128
2.05217 0.637958 -1.71779 118 126 128
2.05287 0.633394 -1.69725 119 125 125
2.06095 0.631159 -1.68305 118 123 126
2.05443 0.624521 -1.65722 118 123 126
2.05444 0.619953 -1.63703 117 125 127
2.04817 0.61357 -1.61219 118 124 124
2.04855 0.609258 -1.59294 115 119 119
2.04871 0.604945 -1.5738 113 119 118
2.04246 0.598816 -1.55007 110 118 120
2.02879 0.590612 -1.52116 114 117 120
2.02994 0.586813 -1.50375 114 120 120
2.04446 0.5869 -1.49635 113 119 119
2.05169 0.584913 -1.48369 113 119 119
2.05974 0.583185 -1.47174 117 123 122
2.07416 0.583272 -1.46439 115 118 121
2.08114 0.581284 -1.45186 116 119 122
2.08896 0.579554 -1.44003 113 118 121
2.09575 0.577565 -1.4276 113 118 121
2.11001 0.577651 -1.42033 112 117 120
2.1176 0.57592 -1.40861 114 120 120
2.12414 0.573929 -1.39631 116 120 119
2.11703 0.568303 -1.37526 108 112 111
2.09699 0.559299 -1.34624 106 110 109
2.07748 0.550553 -1.31806 104 105 97
2.06443 0.543622 -1.29443 107 116 107
2.06494 0.540326 -1.2796 82 92 99
2.06529 0.537029 -1.26485 67 80 86
2.06546 0.53373 -1.25018 47 63 75
2.08571 0.535629 -1.24771 39 55 58
2.11216 0.539088 -1.2488 37 52 58
2.13878 0.542547 -1.24981 29 47 52
2.15834 0.544188 -1.24656 28 42 50
2.17902 0.546089 -1.24387 24 36 46
2.17891 0.542789 -1.22935 24 37 50
2.16497 0.536106 -1.2073 21 36 55
2.14436 0.527861 -1.18193 24 41 60
2.13823 0.523256 -1.16487 24 41 60
2.13828 0.520211 -1.15139 22 38 55
2.14464 0.518726 -1.14142 22 38 55
2.15741 0.518803 -1.13491 22 38 55
2.17019 0.51888 -1.1284 22 38 55
2.17639 0.517395 -1.11851 22 38 55
2.1759 0.514346 -1.1053 22 38 55
2.18191 0.51286 -1.09551 22 38 55
2.18785 0.511373 -1.08576 21 36 55
2.19482 0.510146 -1.0766 21 36 55
2.20061 0.508658 -1.06692 21 36 55
2.19385 0.504303 -1.05131 21 36 55
2.18687 0.499946 -1.0358 21 36 55
2.17393 0.494285 -1.01773 21 36 55
2.16187 0.488883 -1.00033 21 36 55
2.14954 0.483479 -0.983069 20 36 53
2.14394 0.479638 -0.969107 20 36 53
2.13814 0.475796 -0.955243 20 36 53
2.14983 0.475867 -0.949283 20 36 53
2.14967 0.473328 -0.938152 20 36 53
2.15534 0.472093 -0.929655 20 36 53
2.16694 0.472163 -0.923745 20 36 53
2.17251 0.470927 -0.915298 18 33 52
2.17802 0.469692 -0.906883 18 33 52
2.1713 0.465844 -0.893493 18 33 52
2.1656 0.462257 -0.880698 18 33 52
2.15973 0.458668 -0.867994 18 33 52
2.15367 0.455079 -0.855383 18 33 52
2.14868 0.45175 -0.84335 18 33 52
2.14228 0.448158 -0.830918 22 38 55
2.15327 0.448224 -0.825315 22 38 55
2.16426 0.44829 -0.819711 22 38 55
2.17525 0.448356 -0.814108 22 38 55
2.18115 0.447377 -0.806619 22 38 55
2.18699 0.446397 -0.799156 22 38 55
2.19149 0.445155 -0.791254 22 38 55
2.19205 0.443128 -0.782 19 35 52
2.20291 0.443193 -0.776465 19 35 52
2.21899 0.444306 -0.772751 19 35 52
2.22988 0.444371 -0.767203 19 35 52
2.25264 0.446792 -0.765692 19 35 52
2.28612 0.451308 -0.767685 19 35 52
2.32115 0.456088 -0.770009 19 35 52
2.35776 0.46113 -0.772653 23 39 51
2.37577 0.462508 -0.769077 23 39 51
-0.513866 0.726338 -3.57872 129 110 134
-0.494907 0.726452 -3.56906 131 113 135
-0.478039 0.72976 -3.57503 137 117 137
-0.463167 0.736507 -3.59773 143 122 140
-0.450023 0.746697 -3.637 145 125 140
-0.436637 0.757381 -3.67839 154 131 145
-0.418776 0.760941 -3.68499 157 130 144
-0.397129 0.757619 -3.65825 159 132 146
-0.377375 0.757738 -3.64818 170 140 150
-0.359245 0.7613 -3.65464 172 139 145
-0.339401 0.761419 -3.64452 181 150 156
-0.324099 0.772362 -3.68606 191 168 172
-0.314331 0.798807 -3.80106 198 176 183
-0.303915 0.827228 -3.9247 206 185 189
-0.288162 0.844338 -3.99404 222 196 200
-0.266171 0.844471 -3.98283 255 249 250
-0.248023 0.857896 -4.03413 254 254 254
-0.229247 0.871572 -4.08623 254 254 254
-0.21105 0.89067 -4.16329 254 254 254
-0.187867 0.890809 -4.15147 254 254 254
-0.163819 0.886269 -4.11791 254 254 254
-0.140758 0.886408 -4.10615 254 254 254
-0.117696 0.886547 -4.0944 254 254 254
-0.094635 0.886686 -4.08264 254 254 254
-0.0715735 0.886825 -4.07089 254 254 254
-0.0485122 0.886963 -4.05913 254 254 254
-0.0254508 0.887102 -4.04737 254 254 254
-0.00238944 0.887241 -4.03562 254 254 254
0.020672 0.88738 -4.02386 254 254 254
0.0437334 0.887519 -4.01211 254 254 254
0.0667948 0.887658 -4.00035 254 254 254
0.0898563 0.887797 -3.9886 254 255 252
0.112918 0.887936 -3.97684 251 255 252
0.135979 0.888075 -3.96508 251 255 252
0.15904 0.888214 -3.95333 251 255 252
0.182102 0.888353 -3.94157 251 255 252
0.205163 0.888492 -3.92982 251 255 252
0.228225 0.888631 -3.91806 251 255 252
0.251286 0.88877 -3.90631 251 255 252
0.277321 0.898544 -3.93676 251 255 252
0.302286 0.903626 -3.94646 251 255 252
0.329377 0.9139 -3.97863 251 255 252
0.356994 0.924176 -4.01052 251 255 252
0.383099 0.929512 -4.02076 251 255 252
0.409581 0.935097 -4.03193 251 255 252
0.436231 0.940436 -4.04189 251 255 252
0.463271 0.946024 -4.05278 251 255 252
0.487787 0.946172 -4.04028 251 255 252
0.512303 0.946319 -4.02778 251 255 252
0.539907 0.951911 -4.03838 251 255 252
0.564565 0.952059 -4.02581 251 255 252
0.589222 0.952208 -4.01324 251 255 252
0.61755 0.95805 -4.02459 251 255 254
0.646006 0.963647 -4.03475 251 255 252
0.678882 0.975188 -4.06958 251 255 252
0.695898 0.963948 -4.00932 251 255 252
0.720843 0.964098 -3.99661 251 255 252
0.750196 0.969946 -4.00743 251 255 252
0.779844 0.975797 -4.01811 251 255 252
0.809991 0.981897 -4.02965 251 255 252
0.835386 0.98205 -4.01671 251 255 252
0.871209 0.994102 -4.05227 251 255 252
0.907871 1.00641 -4.08852 251 255 252
0.939409 1.01251 -4.09936 238 246 248
0.959903 1.00672 -4.062 218 222 222
0.979847 1.00067 -4.0238 194 198 198
1.0057 1.00083 -4.01062 193 196 199
1.03156 1.00099 -3.99744 207 210 213
1.05741 1.00114 -3.98426 200 203 206
1.08327 1.0013 -3.97108 194 199 202
1.09593 0.989537 -3.91081 192 196 201
1.1015 0.972063 -3.82835 187 184 193
1.12659 0.972214 -3.81556 138 135 144
1.15845 0.978077 -3.82511 104 100 111
1.20534 0.996115 -3.88195 97 99 109
1.22367 0.990307 -3.84569 97 98 106
1.25674 0.996425 -3.85574 93 94 102
1.28244 0.996579 -3.84264 89 92 100
1.30814 0.996734 -3.82954 89 92 100
1.35015 1.00907 -3.86307 86 92 99
1.3843 1.01519 -3.87257 87 92 101
1.44605 1.04097 -3.95659 82 87 96
1.49188 1.05456 -3.99377 76 85 96
1.52873 1.06144 -4.00527 78 87 98
1.53639 1.04817 -3.94081 78 87 98
1.53407 1.02867 -3.85341 78 85 94
1.51376 0.997973 -3.72472 74 81 90
1.53025 0.992154 -3.68941 72 81 92
1.56517 0.998283 -3.69852 68 80 90
1.61031 1.01064 -3.73045 66 78 86
1.66656 1.02947 -3.78588 67 79 89
1.71435 1.04258 -3.81982 63 75 85
1.74118 1.04274 -3.80614 62 74 84
1.80222 1.06309 -3.86585 61 73 83
1.8776 1.09116 -3.95301 59 71 81
1.94396 1.11326 -4.01786 54 67 80
1.97259 1.11343 -4.00326 54 66 76
1.98778 1.10613 -3.96188 58 70 80
1.98986 1.09184 -3.89578 58 72 82
1.99166 1.07779 -3.83095 61 75 85
1.96844 1.05077 -3.72057 65 82 91
1.95802 1.03123 -3.6373 70 86 98
1.94852 1.01268 -3.55805 74 90 102
1.93902 0.994617 -3.48103 75 93 105
1.94091 0.982791 -3.42625 77 94 108
1.95467 0.977202 -3.39345 80 95 109
1.99139 0.983095 -3.40052 83 99 111
2.04122 0.995232 -3.42894 86 102 114
2.05432 0.989393 -3.39535 92 108 120
2.06712 0.983551 -3.36192 97 110 123
2.04401 0.960972 -3.27166 101 115 125
2.045 0.950128 -3.22181 103 117 127
2.01224 0.924038 -3.12078 97 110 123
2.00236 0.908936 -3.05742 100 113 126
1.99337 0.894579 -2.99697 110 121 134
2.02701 0.899467 -3.00112 118 127 138
2.03925 0.894855 -2.97358 114 123 134
2.03972 0.885241 -2.92961 95 107 117
2.03036 0.871622 -2.87271 93 107 117
2.0315 0.862751 -2.83176 115 124 135
2.03217 0.853878 -2.79105 115 124 135
2.01312 0.836994 -2.72452 113 122 133
1.99442 0.820606 -2.66005 114 123 134
1.98593 0.808718 -2.61055 115 124 135
1.98739 0.801083 -2.57505 115 124 133
1.98907 0.793695 -2.54055 117 124 133
1.99037 0.786305 -2.50625 119 126 135
2.0009 0.782669 -2.48406 119 126 135
2.00217 0.775526 -2.4509 117 124 133
2.00307 0.76838 -2.41792 118 124 131
2.00427 0.761482 -2.38591 117 123 130
2.01442 0.758091 -2.36504 117 125 132
2.02507 0.754949 -2.34503 119 127 134
2.04438 0.755066 -2.33519 117 125 132
2.05409 0.751672 -2.31454 119 127 134
2.05463 0.745017 -2.28399 120 127 136
2.04645 0.73535 -2.24443 119 127 134
2.02087 0.719661 -2.18683 119 127 134
2.00443 0.707478 -2.14027 115 125 132
1.9974 0.698805 -2.10461 119 127 134
2.00657 0.695901 -2.08648 120 128 135
2.01631 0.693247 -2.06918 119 125 132
2.03402 0.693354 -2.06015 120 128 135
2.05172 0.693461 -2.05113 116 124 131
2.04395 0.68503 -2.01697 118 125 129
2.0365 0.676847 -1.98376 119 126 130
2.037 0.671425 -1.95883 118 125 129
2.05414 0.671528 -1.9501 115 123 130
2.07127 0.671631 -1.94137 115 123 130
2.072 0.666457 -1.91745 116 125 129
2.05591 0.656003 -1.87856 121 126 129
2.03293 0.643535 -1.8342 118 124 131
2.00291 0.629052 -1.78447 120 124 129
1.98909 0.619844 -1.75003 120 124 129
1.99025 0.615412 -1.72926 119 123 128
2.01331 0.617771 -1.72759 119 122 125
2.02905 0.617866 -1.71957 117 125 127
2.0448 0.61796 -1.71154 116 124 126
2.05299 0.61579 -1.69728 119 124 127
2.06106 0.61362 -1.68307 120 125 128
2.06136 0.609183 -1.66273 120 126 126
2.05455 0.60273 -1.63705 123 127 127
2.04828 0.596527 -1.61221 120 123 126
2.04169 0.590323 -1.58754 118 124 124
2.03478 0.584116 -1.56303 114 120 120
2.02136 0.576144 -1.53399 113 119 119
2.01554 0.570438 -1.51117 111 119 121
2.02288 0.568509 -1.49846 112 121 120
2.03734 0.568596 -1.49109 115 123 125
2.04543 0.566919 -1.47911 115 124 123
2.05985 0.567005 -1.47176 118 123 126
2.06688 0.565075 -1.45921 116 122 122
2.07475 0.563396 -1.44735 113 118 121
2.08907 0.563483 -1.44005 113 118 121
2.10338 0.563569 -1.43275 113 119 119
2.11012 0.561637 -1.42035 114 119 122
2.12439 0.561723 -1.41307 112 117 120
2.13193 0.560042 -1.40138 118 117 121
2.12487 0.554574 -1.38031 109 115 115
2.10391 0.54557 -1.35063 107 112 108
2.07758 0.535301 -1.31808 102 108 101
2.06453 0.528565 -1.29445 104 114 109
2.06504 0.525362 -1.27962 84 95 99
2.05939 0.520643 -1.26119 66 84 89
2.06556 0.518954 -1.2502 47 61 71
2.08581 0.520802 -1.24773 40 54 62
2.11226 0.524167 -1.24882 39 53 61
2.14503 0.52905 -1.25342 36 50 58
2.16566 0.5309 -1.25075 25 43 55
2.17912 0.530981 -1.24389 24 40 52
2.1717 0.526004 -1.22525 17 37 55
2.15772 0.519509 -1.20322 24 41 62
2.13812 0.511746 -1.17845 20 37 58
2.13194 0.50727 -1.16142 22 39 60
2.13838 0.505829 -1.15141 22 39 60
2.14473 0.504388 -1.14144 22 39 60
2.15751 0.504465 -1.13493 22 39 60
2.17028 0.504542 -1.12842 22 39 60
2.17648 0.5031 -1.11853 22 39 60
2.176 0.500138 -1.10532 22 39 60
2.18201 0.498694 -1.09553 19 35 59
2.18237 0.495984 -1.08301 19 35 59
2.18819 0.494539 -1.07332 19 35 59
2.1883 0.491828 -1.06093 19 35 59
2.18714 0.488861 -1.04806 19 35 59
2.18126 0.48488 -1.03312 19 35 59
2.17402 0.480645 -1.01775 19 35 59
2.16196 0.475393 -1.00035 18 38 58
2.16123 0.472676 -0.988388 18 38 58
2.14986 0.467676 -0.971758 18 38 58
2.14995 0.465211 -0.960496 18 38 58
2.14992 0.462744 -0.949299 18 38 58
2.16161 0.462815 -0.94334 18 38 58
2.16735 0.461616 -0.934811 18 38 58
2.17301 0.460418 -0.926314 18 38 58
2.17862 0.459218 -0.91785 17 37 57
2.17811 0.456749 -0.906899 17 37 57
2.17138 0.45301 -0.893508 17 37 57
2.16569 0.449523 -0.880713 17 37 57
2.16596 0.447305 -0.870481 17 37 57
2.16612 0.445087 -0.860308 17 37 57
2.16492 0.442614 -0.849706 17 37 57
2.17109 0.441665 -0.842077 17 37 57
2.18223 0.441732 -0.836398 17 37 57
2.19337 0.441799 -0.83072 17 37 57
2.19309 0.439578 -0.820769 17 37 57
2.1927 0.437356 -0.810877 17 37 57
2.18707 0.434116 -0.799171 17 37 57
2.19157 0.432911 -0.791269 17 37 57
2.19731 0.431959 -0.783862 15 35 55
2.21339 0.433042 -0.780147 15 35 55
2.23606 0.435398 -0.778682 15 35 55
2.2641 0.438773 -0.778966 15 35 55
2.29363 0.442403 -0.779613 15 35 55
2.32333 0.446034 -0.780169 15 35 55
2.35322 0.449666 -0.780633 15 35 55
2.37659 0.452027 -0.778812 21 41 61
2.38124 0.450822 -0.770835 21 41 61
-0.52536 0.721027 -3.65981 133 116 135
-0.510655 0.727819 -3.68371 132 116 138
-0.493339 0.731275 -3.69058 134 120 137
-0.47816 0.738309 -3.71536 140 121 139
-0.460389 0.741768 -3.722 143 124 142
-0.442579 0.745466 -3.72974 149 126 140
-0.420521 0.742008 -3.70168 157 133 145
-0.400588 0.742128 -3.69152 163 138 147
-0.38249 0.745828 -3.69911 168 139 147
-0.3642 0.74953 -3.70661 170 142 146
-0.344074 0.749651 -3.69635 184 153 158
-0.328591 0.760517 -3.73891 196 170 175
-0.317272 0.783089 -3.83855 205 182 186
-0.306826 0.811162 -3.96442 208 187 191
-0.291019 0.828255 -4.03598 226 200 204
-0.267402 0.824088 -4.00375 255 251 255
-0.247856 0.832824 -4.03416 254 254 254
-0.227913 0.841802 -4.06548 254 254 254
-0.210878 0.864648 -4.16332 254 254 254
-0.187694 0.864788 -4.1515 254 254 254
-0.163647 0.860384 -4.11794 254 254 254
-0.140586 0.860523 -4.10618 254 254 254
-0.117524 0.860662 -4.09443 254 254 254
-0.0944629 0.860801 -4.08267 254 254 254
-0.0714014 0.86094 -4.07092 254 254 254
-0.0483402 0.861079 -4.05916 254 254 254
-0.0252787 0.861218 -4.04741 254 254 254
-0.00221739 0.861357 -4.03565 254 254 254
0.0208442 0.861496 -4.02389 254 254 254
0.0439055 0.861635 -4.01214 254 254 254
0.066967 0.861774 -4.00038 254 254 254
0.0900283 0.861912 -3.98863 254 255 252
0.11309 0.862051 -3.97687 254 255 252
0.136151 0.86219 -3.96512 251 255 252
0.159212 0.862329 -3.95336 251 255 252
0.182274 0.862468 -3.94161 251 255 252
0.205335 0.862607 -3.92985 251 255 252
0.229603 0.867302 -3.93878 251 255 254
0.252786 0.867442 -3.92697 251 255 252
0.275969 0.867581 -3.91515 251 255 252
0.300806 0.872519 -3.92491 251 255 252
0.329554 0.887296 -3.97866 251 255 252
0.357173 0.897277 -4.01056 251 255 252
0.387662 0.912783 -4.06678 251 255 252
0.414421 0.918211 -4.07781 251 255 252
0.441462 0.923641 -4.08869 251 255 252
0.468906 0.929312 -4.10049 251 255 252
0.496517 0.934746 -4.11109 251 255 252
0.518516 0.929611 -4.0752 251 255 252
0.54332 0.929761 -4.06256 251 255 252
0.568125 0.92991 -4.04991 251 255 252
0.59293 0.930059 -4.03727 251 255 252
0.617735 0.930209 -4.02463 251 255 252
0.646192 0.935647 -4.03479 251 255 252
0.675104 0.941328 -4.04584 251 255 252
0.696084 0.935948 -4.00936 251 255 252
0.721029 0.936098 -3.99664 251 255 252
0.754792 0.947314 -4.03101 251 255 252
0.780033 0.947466 -4.01814 251 255 252
0.810181 0.953393 -4.02969 251 255 252
0.840637 0.959322 -4.04107 251 255 252
0.871401 0.965253 -4.0523 251 255 252
0.902472 0.971186 -4.06338 251 255 252
0.928328 0.971342 -4.0502 249 255 252
0.960097 0.977518 -4.06204 226 231 240
0.986113 0.977675 -4.04877 205 211 211
1.01213 0.977832 -4.03551 195 205 207
1.03815 0.977989 -4.02225 198 207 211
1.06416 0.978145 -4.00899 195 202 206
1.08346 0.972277 -3.97112 188 195 199
1.09612 0.960862 -3.91084 188 195 199
1.09522 0.938352 -3.8059 178 182 187
1.12016 0.938503 -3.79318 133 130 139
1.15864 0.949747 -3.82515 107 104 113
1.22026 0.979086 -3.92942 100 101 109
1.24628 0.979242 -3.91615 95 97 102
1.28796 0.991464 -3.95097 93 97 102
1.3223 0.997656 -3.9615 90 93 101
1.34879 0.997815 -3.94799 87 93 100
1.39259 1.01053 -3.98398 87 93 100
1.43773 1.02373 -4.02152 86 91 100
1.48356 1.03693 -4.05871 82 87 96
1.52094 1.04386 -4.07105 81 88 97
1.55867 1.05079 -4.08321 79 86 95
1.56613 1.03743 -4.01662 77 84 93
1.56359 1.01802 -3.92708 79 86 95
1.55133 0.99305 -3.81672 73 82 91
1.56768 0.986924 -3.77923 68 80 90
1.61376 0.999412 -3.81293 68 80 90
1.6716 1.01867 -3.87202 67 79 89
1.73127 1.03842 -3.93244 64 75 88
1.77026 1.04536 -3.94396 64 76 86
1.79796 1.04553 -3.92984 62 74 84
1.82566 1.0457 -3.91572 63 75 85
1.87781 1.05966 -3.95305 59 71 81
1.91849 1.06684 -3.96483 56 69 82
1.95955 1.07403 -3.97642 52 66 76
1.975 1.06718 -3.93602 53 67 77
1.99007 1.06033 -3.89582 58 72 82
2.00478 1.05348 -3.85581 60 74 84
1.98126 1.027 -3.74445 63 79 91
1.98285 1.01408 -3.68309 69 85 97
1.97272 0.995589 -3.60191 71 89 101
1.96257 0.977573 -3.52299 78 94 106
1.9411 0.954461 -3.42628 78 96 108
1.95486 0.949037 -3.39348 77 95 107
1.99158 0.954765 -3.40055 83 102 111
2.02911 0.960736 -3.40833 87 104 113
2.04206 0.955069 -3.37482 93 109 121
2.04316 0.944063 -3.32268 100 113 126
2.04419 0.933296 -3.27169 101 114 127
2.04519 0.922768 -3.22185 106 118 128
2.01242 0.897434 -3.12081 101 110 121
1.99152 0.877916 -3.04064 100 113 126
1.97182 0.859363 -2.96434 110 122 137
1.98437 0.85513 -2.93776 116 128 138
2.00694 0.855266 -2.92625 111 123 133
2.01857 0.850787 -2.89902 94 102 116
2.03053 0.84655 -2.87274 94 105 118
2.02106 0.833565 -2.81701 115 124 135
2.01209 0.821062 -2.76328 114 123 132
1.99282 0.804667 -2.69685 114 123 132
1.97511 0.789238 -2.63411 115 124 133
1.96703 0.777938 -2.58553 115 124 133
1.95959 0.76712 -2.53886 115 124 133
1.96099 0.759946 -2.50451 118 127 136
1.97151 0.756418 -2.48233 117 126 135
1.98247 0.753133 -2.46104 121 126 135
1.99326 0.749846 -2.43984 117 125 132
2.00322 0.746315 -2.41795 118 123 132
2.01364 0.743026 -2.39693 116 121 130
2.02389 0.739736 -2.37601 117 122 131
2.03395 0.736445 -2.35518 118 124 131
2.04452 0.733397 -2.33522 122 128 135
2.05423 0.730104 -2.31457 122 128 135
2.06446 0.727053 -2.29478 121 127 134
2.07382 0.723758 -2.27431 119 126 135
2.07454 0.717538 -2.24479 121 128 137
2.06641 0.708392 -2.20632 119 127 134
2.04918 0.696318 -2.15904 120 128 135
2.04071 0.687409 -2.12187 121 130 134
2.03324 0.678985 -2.08643 123 130 134
2.03415 0.673484 -2.06018 119 125 132
2.04294 0.670664 -2.04224 119 125 132
2.03584 0.662721 -2.00886 121 127 134
2.02 0.652092 -1.96759 121 127 134
2.02113 0.647071 -1.94347 116 122 129
2.03813 0.647173 -1.9348 115 124 128
2.05512 0.647276 -1.92614 118 125 129
2.06353 0.644693 -1.90952 118 125 129
2.04816 0.634785 -1.87138 118 125 129
2.01717 0.620234 -1.8199 118 125 129
1.98862 0.606656 -1.77166 119 123 128
1.97468 0.597714 -1.73727 119 126 130
1.98305 0.59561 -1.72292 119 124 127
2.00605 0.597903 -1.72128 121 126 129
2.0143 0.595798 -1.70699 118 123 126
2.02993 0.595892 -1.69902 120 125 128
2.038 0.593786 -1.68481 119 123 128
2.04596 0.591679 -1.67066 121 126 129
2.03932 0.585415 -1.64489 119 124 127
2.04008 0.58135 -1.62544 120 125 128
2.04061 0.577283 -1.60611 118 123 126
2.0418 0.57346 -1.58756 116 121 124
2.03489 0.567433 -1.56305 114 119 122
2.02147 0.559691 -1.53401 112 117 120
