ply
format ascii 1.0
comment pointcloud saved from PyCharm
element vertex 1247
property float32 x
property float32 y
property float32 z
property uchar blue
property uchar green
property uchar red
end_header
2.19319 0.0249758 1.7815 83 87 87
2.20488 0.0248309 1.81389 87 87 88
2.18995 0.0243851 1.82446 80 81 78
2.16679 0.0238511 1.8279 77 78 75
2.1363 0.0232418 1.82472 81 89 91
2.13062 0.0229056 1.84246 72 88 105
2.13315 0.0226565 1.86739 55 89 119
2.13563 0.0224049 1.89245 45 81 113
2.14705 0.0222436 1.9257 51 80 113
2.16651 0.0221601 1.96663 46 71 100
2.21425 0.0223555 2.03408 67 87 105
2.24469 0.0223643 2.08663 79 98 107
2.26687 0.022282 2.1322 93 106 93
2.2897 0.0221985 2.17902 97 109 90
2.30354 0.0220213 2.21783 97 106 90
2.30686 0.0217394 2.24685 90 99 85
2.30054 0.0213654 2.26658 103 105 94
2.28467 0.020904 2.2768 107 107 96
2.26885 0.0204457 2.28685 115 115 104
2.26259 0.0200749 2.30642 106 105 97
2.24606 0.0196143 2.31541 102 108 108
2.23983 0.0192451 2.3349 83 99 116
2.23359 0.018876 2.35438 75 100 124
2.24694 0.0186695 2.39473 71 98 122
2.26017 0.0184565 2.43543 69 98 124
2.26395 0.0181621 2.46628 87 107 127
2.27699 0.0179377 2.50758 104 117 130
2.2907 0.0177128 2.55008 126 134 141
2.28422 0.0173288 2.57035 139 146 142
2.25771 0.0167959 2.56784 167 169 163
2.2413 0.0163425 2.57645 183 184 171
2.22572 0.015898 2.58578 199 197 185
2.21934 0.0155206 2.60569 196 194 182
2.20308 0.0150756 2.61387 197 197 186
2.18686 0.0146339 2.62186 199 196 186
2.16238 0.0141411 2.6196 201 197 185
2.13725 0.0136498 2.61608 205 201 189
2.12202 0.0132259 2.62431 204 200 186
2.10683 0.0128051 2.63238 207 203 189
2.07449 0.0122855 2.61857 208 204 192
2.05126 0.0118266 2.61569 207 203 191
2.02887 0.0113779 2.61345 207 203 191
2.01473 0.0109793 2.62153 207 203 191
2.00877 0.0106267 2.64014 207 203 191
2.00282 0.010274 2.65876 207 203 191
1.98878 0.00988114 2.66653 207 203 191
1.96672 0.00945238 2.66324 207 203 191
1.94477 0.00902938 2.65965 207 203 191
1.92364 0.00861531 2.65676 207 203 191
1.9026 0.00820673 2.65358 207 203 191
1.88238 0.00780656 2.65114 207 203 191
1.85502 0.00738289 2.63816 207 203 191
1.82132 0.00694232 2.61546 207 203 191
1.80214 0.00656412 2.61304 207 203 191
1.79664 0.00623805 2.63025 207 203 191
1.784 0.00588845 2.63692 207 203 191
1.77852 0.00556368 2.65406 207 203 191
1.76665 0.00522004 2.66159 207 201 189
1.75483 0.00487876 2.669 207 201 189
1.736 0.00452147 2.66547 207 201 189
1.71165 0.00415549 2.65298 207 201 189
1.6937 0.00381065 2.64997 207 201 189
1.67026 0.00345895 2.6379 207 201 189
1.64136 0.00310349 2.61661 207 201 189
1.59667 0.0027296 2.56919 207 201 189
1.5702 0.00239791 2.55017 205 199 187
1.54937 0.00208171 2.53976 205 199 187
1.54444 0.00178977 2.55517 205 199 187
1.54978 0.00150783 2.58772 205 199 187
1.55505 0.00122201 2.62048 205 199 187
1.56094 0.000932673 2.6546 205 199 187
1.55591 0.000634762 2.67033 205 199 187
1.53534 0.000333484 2.65913 207 201 189
1.51486 3.8175e-05 2.64762 207 201 189
1.49449 -0.000251179 2.63579 207 201 189
1.47957 -0.000536492 2.63318 207 201 189
1.47006 -0.00082089 2.63994 207 201 189
1.46057 -0.00110347 2.64661 207 201 189
1.45046 -0.0013836 2.65197 207 201 189
1.44104 -0.00166242 2.65844 207 201 189
1.42704 -0.00193318 2.65623 207 203 191
1.40851 -0.00219313 2.64521 207 203 191
1.39465 -0.0024557 2.64258 207 203 191
1.37694 -0.00270697 2.63228 207 203 191
1.36386 -0.00296291 2.63047 207 203 191
1.35473 -0.00322471 2.63604 207 203 191
2.09123 0.0396457 -0.664139 71 100 139
2.09314 0.0395236 -0.653705 66 96 133
2.09503 0.0394002 -0.643202 73 99 139
2.10271 0.0393844 -0.634384 66 94 136
2.11615 0.0394742 -0.627147 70 98 140
2.12952 0.0395601 -0.619706 71 99 141
2.13705 0.0395352 -0.610408 69 94 139
2.14453 0.0395078 -0.600974 72 97 142
2.15312 0.0394988 -0.591718 67 92 137
2.15477 0.039361 -0.580455 67 95 139
2.15066 0.0391176 -0.567609 64 92 136
2.14082 0.0387706 -0.553284 68 96 138
2.12987 0.0384042 -0.538739 70 98 142
2.12008 0.0380599 -0.524558 73 103 147
2.11601 0.0378186 -0.511822 77 107 149
2.11193 0.0375773 -0.499086 77 107 149
2.10219 0.0372355 -0.485041 88 119 153
2.07549 0.0365958 -0.467244 139 147 167
2.04888 0.0359612 -0.449721 167 172 175
2.03927 0.0356273 -0.436088 182 183 180
2.0353 0.0353925 -0.423695 182 183 175
2.04256 0.035352 -0.413575 167 165 165
2.04978 0.0353089 -0.403318 131 142 140
2.06255 0.0353591 -0.393993 102 118 121
2.06967 0.0353102 -0.383427 91 115 123
2.07118 0.0351642 -0.371726 96 124 134
2.07266 0.0350168 -0.359955 106 129 140
2.06858 0.0347748 -0.347185 118 137 144
2.07114 0.034644 -0.335491 130 145 151
2.07256 0.0344932 -0.323542 135 151 154
2.07397 0.0343412 -0.311525 142 154 156
2.06985 0.0340972 -0.298645 142 154 156
2.07232 0.0339612 -0.286677 144 156 158
2.07367 0.0338057 -0.274482 142 153 157
2.06952 0.0335603 -0.261527 143 155 157
2.07084 0.0334029 -0.249229 141 153 155
2.07322 0.0332617 -0.236987 142 154 156
2.07449 0.0331016 -0.224545 141 155 158
2.07683 0.0329574 -0.212146 136 152 155
2.08455 0.0328972 -0.200184 136 152 155
2.08033 0.0326474 -0.187003 138 155 156
2.07612 0.0323977 -0.173822 140 154 157
2.0719 0.0321479 -0.16064 141 156 157
2.07305 0.0319811 -0.147842 137 154 155
2.06883 0.0317307 -0.134627 140 155 156
2.05925 0.0313987 -0.121097 139 154 155
2.06037 0.0312299 -0.108195 138 153 154
2.06254 0.0310758 -0.0952755 136 148 150
2.07638 0.0310955 -0.0827394 139 151 153
2.09651 0.0312055 -0.0701835 135 148 147
2.11125 0.0312312 -0.0571692 133 146 145
2.12591 0.0312522 -0.0439081 134 147 146
2.13416 0.0311761 -0.0303106 133 146 145
2.14973 0.0312039 -0.0166055 132 145 144
2.15156 0.0310297 -0.00262351 133 146 145
2.1607 0.0309591 0.0114799 135 146 145
2.14886 0.0305874 0.0255128 132 144 146
2.13809 0.0302322 0.0394691 132 144 146
2.12006 0.0297761 0.0531603 131 143 145
2.12287 0.0296135 0.0673329 131 143 145
2.12462 0.0294346 0.0815617 131 143 145
2.13359 0.0293539 0.0961992 133 144 148
2.1487 0.0293546 0.111336 129 143 146
2.15754 0.0292663 0.126371 130 144 147
2.16632 0.0291747 0.141584 126 139 145
2.17608 0.0290935 0.15705 125 138 144
2.1786 0.0289134 0.17214 126 139 145
2.18007 0.0287181 0.187239 123 138 144
2.18253 0.0285346 0.202515 125 140 146
2.17784 0.0282568 0.217176 124 139 145
2.16604 0.0278875 0.231079 121 139 144
2.15529 0.027533 0.245 123 141 146
2.15063 0.0272569 0.259573 123 140 147
2.15202 0.0270569 0.274918 122 139 146
2.16143 0.0269558 0.291432 120 137 146
2.17079 0.026851 0.308137 118 134 146
2.18009 0.0267426 0.325034 115 131 143
2.17532 0.0264603 0.339935 116 132 144
2.17055 0.026178 0.354836 113 129 141
2.15881 0.0258123 0.368547 108 125 134
2.14015 0.025366 0.380924 104 118 126
2.10172 0.0246904 0.389435 98 115 122
2.05751 0.0239546 0.396338 87 110 134
2.02729 0.0233885 0.405455 76 110 147
2.02278 0.0231219 0.419528 70 107 150
1.99372 0.0225771 0.428322 66 108 150
1.94221 0.0217858 0.431761 66 107 151
1.90363 0.0211483 0.437465 58 99 143
1.87789 0.0206595 0.4457 45 82 125
1.87367 0.0204097 0.458882 27 64 107
1.86945 0.02016 0.472063 24 61 104
1.87008 0.019962 0.486505 24 60 105
1.87166 0.0197729 0.501275 26 66 113
1.87803 0.0196327 0.517457 27 66 115
1.89591 0.0196092 0.537062 25 66 110
1.92042 0.0196484 0.55894 43 65 85
1.93329 0.0195635 0.577792 61 73 49
1.94034 0.0194165 0.59513 75 81 45
1.94162 0.0192098 0.610832 87 86 44
1.93145 0.0188898 0.622931 93 92 50
1.927 0.0186264 0.636832 93 89 48
1.93487 0.0184807 0.654902 96 93 49
1.95403 0.0184386 0.677081 87 84 40
1.98062 0.0184604 0.702278 64 64 33
2.00142 0.0184217 0.725879 57 57 38
2.00896 0.0182565 0.744977 57 57 46
2.01083 0.0180375 0.762123 53 54 46
2.01266 0.0178167 0.779364 54 56 50
2.01447 0.0175941 0.796702 55 57 51
2.02275 0.0174257 0.816765 61 63 57
2.03097 0.0172538 0.837019 77 77 66
2.03358 0.0170316 0.855129 86 83 61
1.99552 0.016472 0.855922 87 82 57
1.96499 0.0159817 0.859445 84 83 87
1.92998 0.0154619 0.860536 66 84 109
1.92538 0.0151893 0.874923 42 75 114
1.93267 0.015009 0.894815 35 72 115
1.94081 0.0148324 0.915316 33 68 111
1.94161 0.0145973 0.932511 30 62 104
1.94965 0.0144145 0.953341 26 53 91
1.95762 0.0142279 0.974362 35 56 85
1.98542 0.0141798 1.00565 38 56 81
2.01396 0.0141286 1.03789 46 59 65
2.05672 0.0141669 1.07818 61 63 52
2.08042 0.0140641 1.10915 71 69 55
2.09771 0.0139115 1.13717 77 75 61
2.09971 0.0136536 1.15716 76 77 62
2.10969 0.0134448 1.18176 66 74 67
2.1045 0.0131373 1.19799 55 77 82
2.1064 0.0128731 1.21832 55 74 81
2.10119 0.0125645 1.2346 61 58 55
2.09598 0.012256 1.25089 66 57 46
2.08373 0.0119072 1.26291 75 69 57
2.07854 0.0115997 1.27914 84 80 66
2.07334 0.0112922 1.29537 80 78 64
2.06029 0.010943 1.30661 83 82 79
2.04119 0.0105645 1.31381 69 81 96
2.02823 0.0102208 1.32477 56 83 107
2.03091 0.00995597 1.34593 54 83 116
2.03268 0.00968465 1.36664 48 80 117
2.03443 0.00941124 1.38746 47 79 116
2.02925 0.00910489 1.40362 45 77 114
2.0318 0.0088321 1.42521 47 79 116
2.0266 0.00852459 1.44144 52 86 123
2.07261 0.00842519 1.49459 51 83 120
2.11409 0.00829353 1.54545 70 87 106
2.17316 0.00821497 1.61027 81 87 87
2.16755 0.00788266 1.62781 91 84 66
2.17883 0.00760934 1.6582 99 86 53
2.17317 0.00727445 1.67587 110 99 67
2.16752 0.00693954 1.69355 108 107 90
2.17024 0.00663023 1.71786 96 97 94
2.17292 0.00631833 1.7423 76 80 79
2.19306 0.00605214 1.7811 80 83 86
2.21307 0.00577791 1.82033 84 82 83
2.19894 0.00541195 1.83166 83 81 81
2.16666 0.00500656 1.8275 71 71 65
2.13618 0.00461302 1.82432 73 85 87
2.1305 0.00427683 1.84207 69 88 102
2.13303 0.00395585 1.86699 54 86 118
2.13551 0.00363226 1.89205 49 82 116
2.14692 0.00331996 1.9253 46 77 111
2.16638 0.00301353 1.96622 47 74 107
2.21412 0.00273415 2.03366 70 90 108
2.25427 0.00242975 2.09524 75 96 105
2.27642 0.00209424 2.14089 94 105 97
2.28956 0.0017429 2.17859 99 108 94
2.29376 0.00138001 2.20812 98 107 91
2.30672 0.00101761 2.24641 91 99 87
2.3004 0.000643653 2.26615 104 105 97
2.29409 0.000269671 2.28589 113 113 102
2.27824 -0.000103873 2.29602 114 111 101
2.27195 -0.000476273 2.31568 104 106 95
2.25619 -0.000845166 2.32556 99 104 100
2.23969 -0.00121049 2.33447 82 97 116
2.24366 -0.00158688 2.36471 74 101 120
2.2468 -0.00196596 2.3943 72 97 121
2.26003 -0.00235874 2.43499 67 94 118
2.26381 -0.0027467 2.46584 78 102 124
2.26676 -0.00313694 2.49602 99 114 128
2.27042 -0.00353151 2.52722 116 125 129
2.264 -0.0039121 2.54731 137 141 141
2.23832 -0.0042561 2.54551 168 165 162
2.22197 -0.00461272 2.55395 184 182 176
2.20567 -0.00496598 2.56221 192 191 183
2.19936 -0.00533996 2.58195 198 195 185
2.18391 -0.00569011 2.59085 199 196 186
2.17762 -0.00606254 2.61051 201 198 188
2.15241 -0.00637888 2.60724 202 198 186
2.13712 -0.00671958 2.61565 203 199 187
2.11285 -0.00702714 2.61272 204 200 186
2.09844 -0.00736267 2.62164 205 203 191
2.07436 -0.00765945 2.61815 212 203 192
2.04292 -0.00792107 2.60481 211 202 191
2.01237 -0.0081769 2.59197 211 202 191
1.99829 -0.00849349 2.59989 207 201 189
1.99238 -0.00884333 2.61836 207 201 189
1.98647 -0.00919316 2.63682 207 201 189
1.98865 -0.00958194 2.66612 207 201 189
1.97465 -0.00989282 2.67375 207 201 189
1.96071 -0.0102008 2.68122 207 201 189
1.94682 -0.010506 2.68855 207 201 189
1.92571 -0.0107677 2.68559 208 199 188
1.88949 -0.010936 2.66094 208 199 188
1.8549 -0.011102 2.63777 208 199 188
1.8212 -0.0112621 2.61508 208 199 188
1.80202 -0.0115036 2.61266 208 199 188
1.78936 -0.0117826 2.6194 208 199 188
1.78388 -0.0121073 2.63654 208 199 188
1.7656 -0.0123427 2.63459 208 199 188
1.75307 -0.0126142 2.64093 207 201 189
1.74129 -0.0128882 2.64821 207 201 189
1.72321 -0.0131118 2.64564 207 201 189
1.70521 -0.0133306 2.64282 207 201 189
1.69359 -0.0135953 2.64961 207 201 189
1.67642 -0.0138118 2.64746 207 201 189
1.64751 -0.0139239 2.62623 207 201 189
1.59656 -0.0138349 2.56884 209 203 191
1.56456 -0.0138945 2.54085 209 203 191
1.54375 -0.0140442 2.53039 209 203 191
1.54434 -0.0143863 2.55483 209 203 191
1.5442 -0.0147239 2.57824 209 203 191
1.55017 -0.0151233 2.61209 209 203 191
1.55539 -0.01552 2.645 209 203 191
1.55038 -0.0158169 2.66067 209 203 191
1.53523 -0.016008 2.65878 207 203 191
1.51476 -0.0161379 2.64728 207 203 191
1.49975 -0.0163203 2.64493 207 203 191
1.4895 -0.0165508 2.6507 207 203 191
1.47462 -0.0167263 2.64799 207 203 191
1.46977 -0.0170133 2.66314 207 203 191
1.45565 -0.0171907 2.66133 207 203 191
1.44555 -0.0174122 2.66663 207 203 191
1.43154 -0.0175832 2.66448 207 203 191
1.413 -0.0176931 2.65351 207 203 191
1.39062 -0.0177474 2.63482 207 203 191
1.36837 -0.0177947 2.61576 207 203 191
1.35077 -0.0178952 2.6051 207 203 191
1.34233 -0.0181128 2.61179 207 203 191
2.09699 0.026853 -0.666268 67 95 139
2.09889 0.0266943 -0.6558 67 95 139
2.10077 0.0265344 -0.645263 68 96 140
2.10844 0.026446 -0.636412 71 99 141
2.11606 0.026355 -0.627424 67 95 139
2.12943 0.026333 -0.619985 66 91 136
2.13696 0.0262362 -0.610689 71 99 143
2.14444 0.0261368 -0.601256 67 95 139
2.15303 0.0260487 -0.592002 68 96 140
2.16042 0.025944 -0.582288 68 96 140
2.1563 0.0256999 -0.569408 66 94 138
2.15218 0.0254559 -0.556528 65 95 139
2.14235 0.0251448 -0.542202 71 99 141
2.13254 0.024835 -0.527945 74 102 144
2.12161 0.0245134 -0.513481 84 114 156
2.11184 0.0242063 -0.499368 77 107 149
2.09643 0.0238361 -0.484014 91 117 152
2.06408 0.023277 -0.464974 136 146 161
2.0375 0.0227876 -0.447516 168 172 177
2.02791 0.0224909 -0.433951 179 183 182
2.02959 0.0223193 -0.422798 181 182 179
2.04248 0.0222687 -0.413851 167 169 163
2.04409 0.0220932 -0.402493 138 145 141
2.05687 0.0220361 -0.393203 105 118 124
2.064 0.021916 -0.382674 95 114 123
2.06552 0.0217346 -0.371007 95 118 129
2.06701 0.0215519 -0.359272 102 125 136
2.06294 0.0213105 -0.346536 113 132 141
2.0644 0.0211259 -0.334697 127 143 146
2.06695 0.0209512 -0.322964 138 152 155
2.06285 0.0207084 -0.310152 141 153 155
2.06425 0.0205204 -0.298136 144 156 158
2.06564 0.0203311 -0.286051 142 154 156
2.0681 0.0201512 -0.274043 146 158 160
2.06943 0.0199591 -0.261814 142 153 157
2.07075 0.0197658 -0.249517 142 153 157
2.07313 0.0195815 -0.237276 141 153 155
2.0744 0.0193854 -0.224835 140 152 154
2.07673 0.019198 -0.212436 137 152 153
2.07796 0.0189993 -0.199851 140 155 156
2.08024 0.0188089 -0.187295 141 157 155
2.08142 0.0186074 -0.174566 142 157 158
2.08365 0.0184141 -0.161853 139 154 155
2.07941 0.0181629 -0.148596 140 155 156
2.0816 0.0179673 -0.135759 142 154 156
2.07093 0.0176606 -0.122082 143 156 155
2.06668 0.0174094 -0.108826 141 154 153
2.06884 0.0172114 -0.0958656 142 155 154
2.07628 0.0170556 -0.0830356 141 154 153
2.09005 0.0169485 -0.0702692 138 154 152
2.1048 0.0168456 -0.0572986 134 150 148
2.11947 0.0167379 -0.0440814 134 150 148
2.14039 0.0166749 -0.0307084 133 146 144
2.16226 0.0166137 -0.0170149 133 146 144
2.17142 0.0164506 -0.00296146 132 145 144
2.16689 0.0161822 0.0111995 133 144 143
2.14876 0.0158138 0.0252011 133 143 145
2.13173 0.0154564 0.0390435 131 143 145
2.11996 0.0151392 0.0528513 129 141 143
2.12277 0.0149262 0.0670229 132 144 146
2.12452 0.0147043 0.0812508 129 144 145
2.13349 0.0145301 0.0958864 130 144 147
2.1486 0.014394 0.111021 126 140 143
2.15744 0.0142123 0.126054 129 143 146
2.16622 0.0140272 0.141265 126 140 143
2.17598 0.0138453 0.156728 125 139 142
2.1785 0.0136149 0.171817 127 141 144
2.17997 0.0133764 0.186915 124 137 143
2.17529 0.0130995 0.201528 126 139 145
2.17062 0.0128226 0.216141 123 138 144
2.15274 0.0124693 0.229348 125 140 146
2.141 0.0121538 0.243067 122 139 146
2.12929 0.0118402 0.25669 122 139 146
2.1388 0.0116437 0.272921 120 137 144
2.14724 0.0114383 0.289208 120 137 144
2.16366 0.0112713 0.306812 116 133 140
2.17297 0.0110631 0.323659 115 132 141
2.16821 0.0107817 0.338512 113 130 139
2.16346 0.0105003 0.353365 110 129 138
2.15871 0.0102188 0.368218 109 128 137
2.147 0.00990533 0.381834 104 121 128
2.11451 0.0095001 0.3915 100 114 122
2.08312 0.00910647 0.400972 89 113 135
2.05285 0.00872405 0.410272 74 107 146
2.03549 0.00840121 0.421869 71 108 151
1.99951 0.00800699 0.42928 70 109 152
1.95388 0.00758303 0.434074 60 102 149
1.90353 0.0071516 0.437169 58 101 145
1.8778 0.006821 0.445408 44 83 126
1.87358 0.00657125 0.45859 28 65 106
1.86936 0.00632151 0.471771 26 63 104
1.86514 0.00607175 0.484952 28 65 108
1.86576 0.00583713 0.499428 29 67 112
1.87794 0.00563597 0.517161 27 67 114
1.90159 0.0054636 0.538399 30 71 115
1.92608 0.00528632 0.560314 48 74 101
1.95044 0.00510126 0.582639 76 91 92
1.95841 0.004868 0.600392 94 106 96
1.97205 0.00464486 0.620123 102 113 99
1.97989 0.00440407 0.638273 109 120 106
1.98198 0.00414798 0.654719 107 118 104
1.97078 0.00386408 0.666774 112 123 109
1.97283 0.00360617 0.683315 107 118 104
1.97392 0.00334485 0.699619 89 92 84
1.98815 0.00310252 0.720781 59 60 52
2.00229 0.00285502 0.742216 54 57 49
2.00417 0.0025866 0.759313 44 47 39
2.01256 0.00232391 0.779037 45 48 40
2.01436 0.00205097 0.796374 48 50 44
2.02264 0.00178191 0.816435 57 59 53
2.03087 0.00150924 0.836687 67 69 58
2.02607 0.00122509 0.851683 83 79 60
2.00188 0.000931909 0.858366 88 81 58
1.96488 0.00063999 0.859122 82 80 81
1.93539 0.000358509 0.862675 67 84 103
1.92528 8.49e-05 0.874604 43 73 115
1.93256 -0.000188851 0.894494 36 71 114
1.93432 -0.000464679 0.911982 33 68 111
1.9415 -0.000744398 0.932188 33 65 107
1.94954 -0.00102799 0.953015 29 60 99
1.96386 -0.00131946 0.97719 31 60 93
1.99796 -0.00163263 1.01172 34 62 90
2.03368 -0.00195871 1.04777 50 66 78
2.06381 -0.00229048 1.0816 65 67 61
2.0803 -0.00261546 1.1088 75 78 65
2.08954 -0.0029366 1.13245 84 85 70
2.0996 -0.00326328 1.15681 83 86 73
2.10156 -0.00358073 1.17691 72 85 77
2.10439 -0.0039019 1.19763 68 89 96
2.10628 -0.00422362 1.21796 64 88 94
2.10107 -0.00453218 1.23424 70 76 69
2.09586 -0.00484072 1.25053 72 68 56
2.08361 -0.00513195 1.26255 79 75 63
2.08544 -0.00545783 1.2831 81 77 65
2.07323 -0.00574697 1.29501 75 71 57
2.06018 -0.00603149 1.30626 81 79 73
2.04107 -0.00629485 1.31346 74 86 94
2.03593 -0.00659913 1.32952 61 81 106
2.04466 -0.00695052 1.35476 52 83 117
2.03948 -0.00725687 1.37093 47 79 116
2.04207 -0.00759205 1.39239 45 79 116
2.03688 -0.00789956 1.40862 45 78 112
2.03168 -0.00820708 1.42485 45 78 112
2.03333 -0.00854335 1.44594 43 80 116
2.07249 -0.00904554 1.49422 52 87 121
2.11397 -0.00957279 1.54507 66 87 110
2.18153 -0.0102378 1.61617 86 86 86
2.16743 -0.0105303 1.62742 91 85 64
2.17026 -0.010905 1.65138 101 90 58
2.16463 -0.0112386 1.66899 109 98 66
2.16739 -0.0116173 1.69316 110 102 86
2.17012 -0.0119985 1.71747 97 97 97
2.1728 -0.0123823 1.74191 75 83 85
2.20127 -0.0129204 1.78747 82 80 86
2.21294 -0.0133687 1.81992 86 82 82
2.2071 -0.0137142 1.83816 77 76 73
2.16654 -0.013838 1.82711 75 73 67
2.1278 -0.0139616 1.81689 77 81 81
2.12215 -0.0142965 1.83456 72 88 105
2.1329 -0.0147448 1.8666 60 87 111
2.13538 -0.0151403 1.89166 51 85 117
2.1468 -0.0156037 1.9249 49 83 113
2.16626 -0.0161331 1.96582 43 77 107
2.21398 -0.0168872 2.03325 64 90 112
2.25414 -0.0176015 2.09481 76 97 106
2.27629 -0.0181888 2.14046 91 106 98
2.28942 -0.0187128 2.17816 100 109 93
2.29363 -0.0191692 2.20769 100 106 88
2.30658 -0.0197042 2.24597 93 102 88
2.30026 -0.0200781 2.26571 103 108 95
2.3043 -0.0205444 2.29576 111 109 97
2.28763 -0.0208261 2.30519 116 114 102
2.28132 -0.0212 2.32492 105 105 94
2.26553 -0.0214842 2.3349 101 101 101
2.24979 -0.0217652 2.3447 91 100 109
2.24352 -0.022136 2.36428 73 100 119
2.25605 -0.022696 2.40387 71 98 122
2.25989 -0.023174 2.43455 67 97 120
2.26367 -0.0236555 2.4654 79 101 121
2.26662 -0.024132 2.49558 100 113 126
2.26022 -0.0245109 2.51557 116 126 128
2.24455 -0.0247875 2.52515 142 140 140
2.19968 -0.024732 2.50129 165 161 161
2.18344 -0.0249887 2.50939 185 185 174
2.16802 -0.0252508 2.51821 190 190 179
2.16181 -0.0256185 2.53761 195 192 182
2.1556 -0.0259861 2.55701 199 196 186
2.1494 -0.0263537 2.57641 199 196 186
2.13411 -0.0266081 2.58482 199 196 186
2.11887 -0.0268594 2.59305 201 198 188
2.09541 -0.0270009 2.59089 203 199 185
2.0803 -0.0272445 2.59873 207 200 190
2.06599 -0.0274949 2.60734 203 198 188
2.03458 -0.0275106 2.59394 204 199 189
2.01224 -0.02764 2.59156 203 200 190
1.99 -0.0277637 2.58887 203 200 190
1.98412 -0.0281121 2.60726 203 200 190
1.97823 -0.0284605 2.62565 203 200 190
1.98043 -0.028927 2.65487 203 200 190
1.98258 -0.0293963 2.68425 203 200 190
1.97665 -0.0297475 2.70279 203 200 190
1.96271 -0.0299764 2.71026 203 200 190
1.92558 -0.0298424 2.68519 205 200 190
1.88936 -0.0297086 2.66054 205 200 190
1.84756 -0.0294718 2.62712 205 200 190
1.82755 -0.0295712 2.62399 205 200 190
1.80836 -0.0296773 2.62164 205 200 190
1.78924 -0.0297784 2.61902 205 200 190
1.77734 -0.0299948 2.62668 205 200 190
1.76548 -0.030209 2.63421 205 200 190
1.75295 -0.0304085 2.64056 205 202 192
1.73481 -0.0305061 2.63817 205 202 192
1.72309 -0.0307119 2.64527 205 202 192
1.71141 -0.0309155 2.65224 205 202 192
1.69347 -0.0310014 2.64924 205 202 192
1.68258 -0.031212 2.65701 205 202 192
1.65922 -0.0311852 2.64471 205 202 192
1.62487 -0.0309406 2.61422 204 200 188
1.5914 -0.0306983 2.58427 204 200 188
1.56982 -0.0306742 2.57295 204 200 188
1.56483 -0.0309701 2.58856 204 200 188
1.55983 -0.0312659 2.60418 204 200 188
1.56029 -0.0316725 2.62899 204 200 188
1.56072 -0.0320812 2.65391 204 200 188
1.54484 -0.0321534 2.65102 204 200 188
1.52971 -0.0322356 2.64908 205 203 191
1.51465 -0.032314 2.64694 205 203 191
1.50435 -0.0324899 2.65287 205 203 191
1.49475 -0.0326784 2.65989 205 203 191
1.48985 -0.0329684 2.6752 205 203 191
1.48496 -0.0332584 2.6905 205 203 191
1.47476 -0.0334283 2.69612 205 203 191
1.45997 -0.03349 2.6931 208 204 192
1.44065 -0.0334409 2.6813 208 204 192
1.42207 -0.0334016 2.67043 208 204 192
1.39902 -0.0332479 2.6506 208 204 192
1.36826 -0.0328991 2.61544 208 204 192
1.34678 -0.032761 2.59727 208 204 192
1.3377 -0.0329187 2.60267 208 204 192
2.10275 0.0139884 -0.668398 72 98 138
2.10464 0.0137931 -0.657896 70 95 138
2.1065 0.0135966 -0.647326 69 94 137
2.11997 0.0134725 -0.640197 69 94 137
2.12758 0.0133083 -0.631143 68 96 140
2.13513 0.0131415 -0.621951 69 94 137
2.13687 0.0129371 -0.610969 72 98 138
2.14435 0.0127658 -0.601538 68 96 138
2.15294 0.0125986 -0.592286 66 94 136
2.15459 0.0123889 -0.581024 64 94 138
2.16309 0.0122168 -0.571512 66 94 138
2.15896 0.011972 -0.558591 65 93 137
2.15482 0.0117271 -0.54567 71 99 143
2.14385 0.0114458 -0.531054 75 103 147
2.13404 0.011172 -0.516796 76 106 150
2.11743 0.0108645 -0.500994 77 107 149
2.09634 0.010537 -0.484295 84 115 154
2.064 0.0101578 -0.46525 138 148 163
2.03741 0.00981223 -0.44779 165 172 176
2.02782 0.00955151 -0.434224 181 181 181
2.02387 0.009318 -0.421899 182 183 180
2.03116 0.00913496 -0.41185 168 170 159
2.0384 0.00894934 -0.401665 136 148 143
2.05119 0.00878508 -0.392413 109 122 128
2.05833 0.00859361 -0.381919 90 111 120
2.06543 0.00839955 -0.371289 96 117 124
2.06692 0.0081809 -0.359554 102 123 130
2.06285 0.00793958 -0.346818 117 137 142
2.05877 0.00769827 -0.334082 125 141 144
2.0547 0.00745696 -0.321346 132 146 149
2.05062 0.00721564 -0.30861 140 152 154
2.05866 0.0070156 -0.297624 141 154 153
2.06005 0.00679098 -0.285575 143 156 155
2.068 0.006586 -0.274329 142 155 154
2.06934 0.00635799 -0.262101 138 149 148
2.07066 0.00612869 -0.249805 139 151 153
2.0665 0.00588258 -0.236815 134 148 151
2.06887 0.00565429 -0.224534 141 153 155
2.0647 0.00540741 -0.211503 139 151 153
2.07245 0.00519035 -0.19962 142 154 156
2.07366 0.00495495 -0.187002 141 153 155
2.08133 0.00473297 -0.174859 140 155 156
2.09002 0.00451046 -0.162649 140 155 156
2.09114 0.00426948 -0.149736 141 156 157
2.0933 0.00402926 -0.136825 141 156 157
2.08903 0.00377587 -0.123451 139 154 155
2.08475 0.00352249 -0.110078 140 153 152
2.08047 0.00326911 -0.096705 139 152 151
2.08789 0.00303272 -0.0838015 139 152 151
2.09632 0.00279488 -0.070783 138 151 150
2.1047 0.00255394 -0.0576002 136 149 148
2.11937 0.00231681 -0.0443856 135 148 147
2.1403 0.00208116 -0.0310163 133 146 145
2.16216 0.00184018 -0.0173266 134 147 146
2.17132 0.00158352 -0.00327532 132 145 144
2.1605 0.00131139 0.0108542 129 142 140
2.14238 0.00103727 0.0248166 129 142 141
2.12432 0.000766537 0.0386008 129 142 141
2.11986 0.000502381 0.0525426 131 144 143
2.12267 0.000239043 0.066713 131 143 145
2.13065 -2.61789e-05 0.081177 128 140 142
2.13339 -0.000293798 0.0955737 127 141 144
2.1423 -0.000564879 0.110385 129 142 148
2.15115 -0.000839319 0.125375 127 140 146
2.16612 -0.00112033 0.140945 125 138 144
2.17587 -0.00140298 0.156406 126 140 143
2.1784 -0.00168371 0.171495 125 139 142
2.17986 -0.00196534 0.186592 126 139 145
2.17519 -0.00224222 0.201205 126 140 143
2.16441 -0.00251201 0.215211 123 138 144
2.14553 -0.00276976 0.22827 122 137 143
2.13381 -0.00303395 0.241942 121 139 144
2.12919 -0.00330733 0.256371 120 137 144
2.13163 -0.0035926 0.271699 120 137 144
2.14713 -0.00390349 0.288884 121 138 145
2.15652 -0.0042078 0.305489 120 137 146
2.16585 -0.00451575 0.322286 118 135 144
2.16111 -0.00479627 0.337091 114 131 140
2.16336 -0.00509322 0.353036 113 130 139
2.16557 -0.005392 0.369076 111 128 137
2.15385 -0.00565606 0.382742 106 120 128
2.12828 -0.00587997 0.393743 101 115 123
2.08995 -0.00606115 0.401984 91 113 133
2.06558 -0.00627546 0.412519 75 109 146
2.04819 -0.00650648 0.424206 72 109 150
2.01219 -0.00667221 0.431711 67 108 152
1.95966 -0.00677207 0.435077 63 104 148
1.90931 -0.00686623 0.438221 61 101 148
1.8777 -0.00701749 0.445116 48 84 129
1.86764 -0.00724457 0.456868 34 69 112
1.86344 -0.00749355 0.470009 28 63 106
1.85923 -0.00774251 0.483149 29 66 109
1.86083 -0.00801648 0.497842 30 68 113
1.87302 -0.00833927 0.515538 30 70 117
1.89572 -0.00871516 0.536465 30 70 117
1.93751 -0.00918944 0.563361 37 70 104
1.95705 -0.0095684 0.584333 52 64 72
1.97074 -0.00992497 0.60389 61 71 66
1.97863 -0.0102568 0.621908 70 80 68
1.99217 -0.0106224 0.641945 69 80 64
1.99423 -0.0109306 0.658479 72 83 69
1.98299 -0.0111658 0.670623 71 81 69
1.96612 -0.0113665 0.680708 68 78 66
1.96816 -0.0116756 0.697297 66 70 59
1.98146 -0.0120553 0.718073 46 47 44
1.99655 -0.0124516 0.739806 48 50 44
2.00407 -0.0128055 0.758988 52 55 47
2.00591 -0.0131261 0.77618 50 52 46
2.00773 -0.0134485 0.793468 48 50 44
2.01603 -0.0138173 0.813478 54 60 53
2.01777 -0.0141442 0.831005 68 69 61
2.013 -0.0144266 0.845906 94 90 71
1.99531 -0.0146142 0.855266 97 94 72
1.96478 -0.0147017 0.858798 92 88 81
1.94173 -0.0148382 0.865221 67 82 103
1.93709 -0.0151125 0.879698 43 77 114
1.93886 -0.0154377 0.897136 34 69 110
1.9406 -0.0157648 0.91467 30 67 110
1.94777 -0.0161389 0.934922 31 66 107
1.95579 -0.0165241 0.955795 32 62 104
1.97009 -0.0169675 0.980015 30 61 95
1.99785 -0.0175354 1.01138 37 62 91
2.04078 -0.0182496 1.05114 53 70 89
2.07089 -0.0188629 1.08502 62 73 71
2.08019 -0.019295 1.10845 71 78 69
2.08227 -0.0196636 1.12821 81 84 71
2.09234 -0.0201116 1.15252 86 90 79
2.09433 -0.0204855 1.17256 78 86 79
2.09628 -0.0208615 1.19272 73 92 94
2.10617 -0.0213203 1.2176 66 87 96
2.10096 -0.0216289 1.23388 69 79 74
2.09575 -0.0219375 1.25017 72 69 59
2.09053 -0.022246 1.26645 76 72 60
2.09322 -0.0226399 1.28759 80 76 64
2.08011 -0.0228631 1.29902 75 71 57
2.05308 -0.0229279 1.30147 81 80 72
2.04096 -0.0231542 1.3131 79 87 94
2.03582 -0.0234585 1.32916 66 86 106
2.04454 -0.023925 1.3544 53 83 120
2.04715 -0.0243237 1.3758 50 81 120
2.04195 -0.0246312 1.39203 45 77 114
2.03676 -0.0249388 1.40826 45 77 114
2.03157 -0.0252463 1.42449 47 79 116
2.02637 -0.0255538 1.44072 50 85 119
2.06469 -0.026418 1.48831 54 87 121
2.12151 -0.0275385 1.55029 71 91 111
2.1814 -0.0287227 1.61578 83 92 90
2.1673 -0.0289433 1.62703 93 84 66
2.16169 -0.0292756 1.64457 101 85 59
2.15608 -0.0296079 1.66211 107 96 69
2.16727 -0.0301741 1.69277 111 106 89
2.17837 -0.0307455 1.7237 105 106 98
2.18103 -0.0312025 1.74821 79 87 89
2.20114 -0.031916 1.78707 82 80 81
2.21281 -0.0325153 1.81952 86 82 82
2.19868 -0.0327374 1.83085 88 84 84
2.15814 -0.0325577 1.81974 73 74 66
2.12768 -0.0325184 1.8165 78 83 79
2.10557 -0.0325986 1.81995 71 87 104
2.12457 -0.0333168 1.85903 62 87 111
2.12707 -0.033783 1.88402 51 83 113
2.14667 -0.0345273 1.9245 45 79 111
2.16613 -0.0352797 1.96542 43 77 109
2.21385 -0.0365085 2.03284 62 87 116
2.254 -0.0376328 2.09439 75 95 113
2.27615 -0.0384718 2.14003 91 108 95
2.28929 -0.0391684 2.17773 102 107 87
2.29349 -0.0397183 2.20726 105 110 90
2.29683 -0.0402575 2.23618 95 100 85
2.30012 -0.0407999 2.26527 98 101 88
2.30416 -0.0413597 2.29532 114 112 98
2.29781 -0.0417353 2.31515 116 112 98
2.29147 -0.042111 2.33498 110 106 99
2.26539 -0.0421196 2.33446 100 100 100
2.24965 -0.0423143 2.34427 94 101 110
2.25281 -0.0428645 2.37377 73 102 121
2.26609 -0.0436136 2.41428 70 99 125
2.2699 -0.0441869 2.44504 64 93 119
2.27287 -0.0447482 2.47513 81 101 121
2.27657 -0.0453281 2.50624 96 110 118
2.25078 -0.0453189 2.50479 118 123 126
2.21507 -0.0450989 2.4917 138 139 136
2.1803 -0.0448849 2.47897 164 164 165
2.15567 -0.0448691 2.4772 177 177 171
2.14951 -0.0452336 2.49644 189 191 180
2.14335 -0.045598 2.51568 196 196 185
2.1372 -0.0459626 2.53491 199 196 186
2.13104 -0.0463271 2.55415 201 198 188
2.11656 -0.0465087 2.56331 199 197 185
2.11043 -0.0468717 2.58247 203 199 187
2.08625 -0.0468295 2.57931 203 199 187
2.08017 -0.0471894 2.59831 205 199 185
2.05689 -0.047155 2.5956 204 200 188
2.04265 -0.0473219 2.60398 205 201 189
2.02029 -0.0472945 2.60168 204 200 188
1.99802 -0.0472614 2.59908 204 200 188
1.98399 -0.0474169 2.60685 204 200 188
1.9781 -0.0477653 2.62524 204 200 188
1.9803 -0.0483109 2.65447 204 200 188
1.97439 -0.0486607 2.67293 204 200 188
1.96849 -0.0490106 2.69139 204 200 188
1.95457 -0.0491589 2.69879 204 200 188
1.91746 -0.0487142 2.67365 205 201 189
1.88924 -0.0484812 2.66015 205 201 189
1.85465 -0.0480717 2.63699 205 201 189
1.84182 -0.048217 2.64427 205 201 189
1.82186 -0.04817 2.64101 205 201 189
1.80271 -0.0481369 2.63852 205 201 189
1.79077 -0.0482912 2.64631 205 201 189
1.77815 -0.0484237 2.65292 203 199 187
1.77267 -0.0487485 2.67006 203 199 187
1.75447 -0.0487202 2.66787 203 199 187
1.73565 -0.0486675 2.66435 203 199 187
1.71761 -0.0486298 2.66166 203 199 187
1.69965 -0.0485874 2.65872 203 199 187
1.68247 -0.0485604 2.65664 203 199 187
1.66466 -0.0485088 2.65322 203 199 187
1.64209 -0.0483097 2.64174 202 198 186
1.61962 -0.0481042 2.62992 202 198 186
1.60277 -0.0480574 2.62679 202 198 186
1.59218 -0.0481932 2.63364 202 198 186
1.58709 -0.0484942 2.64953 202 198 186
1.58201 -0.0487952 2.66542 202 198 186
1.57149 -0.0489269 2.67206 202 198 186
1.55558 -0.048886 2.66928 203 199 187
1.53501 -0.048691 2.6581 203 199 187
1.51925 -0.048641 2.65483 203 199 187
1.50961 -0.048782 2.662 203 199 187
1.49932 -0.0488994 2.66789 203 199 187
1.49441 -0.0491903 2.68324 203 199 187
1.49947 -0.0498124 2.71666 203 199 187
1.49452 -0.0501052 2.73211 203 199 187
1.48496 -0.0502417 2.73904 201 197 185
1.46028 -0.0498595 2.71771 201 197 185
1.44099 -0.0496504 2.70581 201 197 185
1.41264 -0.0491173 2.67628 201 197 185
1.38575 -0.0486206 2.64875 201 197 185
1.36356 -0.0482761 2.62951 201 197 185
1.35443 -0.0483868 2.63509 201 197 185
2.1085 0.00105194 -0.670529 73 93 139
2.11038 0.000820033 -0.659994 72 95 140
2.11224 0.000586834 -0.649391 68 93 136
2.11988 0.000353294 -0.640474 67 95 137
2.13329 0.000117489 -0.633142 69 94 139
2.13504 -0.000121553 -0.622231 72 95 138
2.13678 -0.000361901 -0.61125 74 97 140
2.13849 -0.00060354 -0.600202 69 92 135
2.14019 -0.000846482 -0.589084 67 95 139
2.14875 -0.00109422 -0.579759 66 94 138
2.15612 -0.00134412 -0.569979 67 95 139
2.15887 -0.00159322 -0.558877 68 93 138
2.16045 -0.00184291 -0.547403 68 96 140
2.1563 -0.00208838 -0.534448 72 102 146
2.14646 -0.00232767 -0.520114 73 103 147
2.13551 -0.0025643 -0.505579 77 105 147
2.11325 -0.00278443 -0.488507 87 110 146
2.07522 -0.00297769 -0.468079 132 145 164
2.04297 -0.00317192 -0.449305 168 171 179
2.02773 -0.00338791 -0.434497 179 179 179
2.02941 -0.0036315 -0.423345 180 181 178
2.03107 -0.00387639 -0.412125 169 171 165
2.03831 -0.00413393 -0.401941 138 145 141
2.0511 -0.00440609 -0.392691 106 122 125
2.05824 -0.00466947 -0.382199 90 109 116
2.06534 -0.00493546 -0.37157 93 117 123
2.07239 -0.00520403 -0.360804 96 120 128
2.06831 -0.005446 -0.348033 107 131 139
2.06422 -0.00568796 -0.335263 120 140 145
2.05461 -0.00591402 -0.321628 134 150 153
2.05605 -0.00617189 -0.309723 138 152 155
2.06407 -0.00645169 -0.298705 141 153 155
2.07205 -0.00673436 -0.287536 142 154 156
2.0734 -0.00699768 -0.275343 141 154 153
2.08129 -0.00728528 -0.263914 139 152 151
2.07056 -0.00750842 -0.250092 139 152 151
2.06641 -0.00775453 -0.237103 140 152 154
2.05681 -0.00797954 -0.223522 139 151 153
2.05267 -0.008225 -0.210567 139 151 153
2.05394 -0.00849286 -0.198135 138 153 154
2.06168 -0.00878968 -0.186219 140 155 156
2.08123 -0.00914148 -0.175152 141 156 157
2.08992 -0.00945031 -0.162943 142 154 156
2.09749 -0.00975724 -0.150494 143 155 157
2.09964 -0.0100414 -0.137542 141 153 155
2.09535 -0.0102956 -0.124128 140 153 152
2.09106 -0.0105497 -0.110714 140 153 152
2.0921 -0.0108315 -0.0975479 141 154 153
2.09417 -0.0111202 -0.0843566 139 152 151
2.09623 -0.0114104 -0.0710827 135 148 147
2.10461 -0.0117377 -0.0579017 135 148 147
2.11294 -0.0120681 -0.0445565 135 148 147
2.13387 -0.0124755 -0.0312317 134 145 144
2.14943 -0.0128578 -0.0175352 133 144 143
2.15126 -0.0131614 -0.00355594 131 144 143
2.14048 -0.0133879 0.0104444 132 145 144
2.12868 -0.0136062 0.0243501 131 143 145
2.11796 -0.0138294 0.0381791 128 141 140
2.11976 -0.0141345 0.0522337 129 142 141
2.12258 -0.0144482 0.066403 126 141 142
2.13781 -0.0148501 0.0811409 129 143 146
2.1395 -0.0151617 0.0955381 126 140 143
2.1484 -0.015527 0.110389 125 139 142
2.15724 -0.0158958 0.125418 125 138 144
2.16602 -0.0162679 0.140625 126 139 145
2.16859 -0.0165962 0.155569 124 137 143
2.17829 -0.0169823 0.171172 124 139 145
2.18691 -0.0173639 0.186879 123 138 144
2.17509 -0.0175839 0.200881 123 138 144
2.1643 -0.0178106 0.214888 122 137 143
2.15253 -0.0180272 0.228705 124 139 145
2.14079 -0.0182419 0.242426 122 137 143
2.13616 -0.0185162 0.256902 123 137 145
2.13859 -0.0188527 0.272277 121 135 143
2.14703 -0.0192452 0.28856 121 135 143
2.14939 -0.0195862 0.304168 116 133 140
2.15873 -0.0199939 0.320915 114 131 138
2.168 -0.0204053 0.337854 115 132 139
2.16325 -0.0206867 0.352707 113 130 139
2.16547 -0.0210358 0.368747 111 128 137
2.15375 -0.0212495 0.382413 107 121 129
2.12124 -0.0212529 0.392135 101 115 123
2.08292 -0.0211886 0.400333 90 110 135
2.05265 -0.021197 0.409641 76 108 145
2.03529 -0.0213328 0.421242 71 106 149
1.99932 -0.0212667 0.428662 69 107 152
1.95368 -0.0210865 0.433469 63 104 148
1.90921 -0.0209061 0.437925 63 104 148
1.87761 -0.020856 0.444824 52 88 133
1.86268 -0.0209851 0.455387 36 71 114
1.85849 -0.0212334 0.468493 26 61 104
1.85429 -0.0214817 0.481599 29 64 107
1.85494 -0.0217868 0.495998 30 68 113
1.86135 -0.0221622 0.512058 28 68 115
1.89563 -0.0228773 0.536166 31 71 118
1.94318 -0.0237673 0.56473 28 58 100
1.9627 -0.0243269 0.585739 39 56 77
1.97064 -0.0247488 0.603577 53 62 71
1.95945 -0.0249314 0.615599 57 65 72
1.96161 -0.0252839 0.631817 58 68 70
1.95709 -0.0255514 0.645937 58 69 68
1.95257 -0.025819 0.660057 58 68 70
1.94806 -0.0260865 0.674177 54 63 61
1.9558 -0.0265203 0.692639 41 47 47
1.96913 -0.0270349 0.713323 35 39 38
1.98988 -0.0276589 0.737049 45 46 43
1.99741 -0.0281053 0.756182 57 59 53
1.99927 -0.0284754 0.773324 55 57 51
2.0011 -0.0288472 0.790563 51 57 50
2.00941 -0.0293158 0.810523 52 58 51
2.00468 -0.0295963 0.825328 59 65 58
1.99994 -0.0298768 0.840133 89 88 71
1.98874 -0.0300597 0.852169 97 92 75
1.96468 -0.0300435 0.858474 89 86 76
1.95449 -0.0302351 0.870631 69 82 101
1.94341 -0.0304108 0.88229 44 77 111
1.94516 -0.0307873 0.899775 38 73 116
1.94597 -0.031151 0.916927 33 68 111
1.95404 -0.0316341 0.937654 31 66 109
1.95569 -0.0320169 0.955468 30 62 104
1.96999 -0.0326114 0.979684 36 66 103
2.00498 -0.0335591 1.01471 38 66 101
2.04067 -0.0345336 1.05079 48 73 92
2.07078 -0.0354274 1.08467 63 77 72
2.08008 -0.0359746 1.1081 71 78 69
2.08215 -0.0364007 1.12786 80 84 73
2.08419 -0.036829 1.14774 79 87 75
2.09421 -0.0374024 1.1722 79 89 84
2.10416 -0.0379803 1.19691 71 92 94
2.10605 -0.0384171 1.21723 67 90 101
2.10084 -0.0387256 1.23352 72 83 87
2.09563 -0.0390342 1.2498 72 69 59
2.09833 -0.0394917 1.27088 79 77 65
2.0931 -0.0398014 1.28723 75 73 61
2.08 -0.0399598 1.29866 76 72 58
2.05297 -0.0398449 1.30111 82 79 69
2.04084 -0.0400136 1.31275 81 88 92
2.03571 -0.0403179 1.32881 68 90 110
2.0375 -0.0407608 1.34945 56 87 121
2.03926 -0.0412058 1.37021 48 82 119
2.03408 -0.0415121 1.38638 49 83 120
2.02891 -0.0418184 1.40255 44 76 113
2.02374 -0.0421248 1.41872 45 78 112
2.01856 -0.0424311 1.43489 48 82 114
2.06458 -0.043824 1.48795 49 84 118
2.12139 -0.0454696 1.54991 68 91 115
2.1643 -0.0468402 1.60282 80 90 92
2.15871 -0.0471712 1.62029 93 84 71
2.16157 -0.0476885 1.64418 100 87 60
2.16438 -0.0482084 1.66821 111 102 70
2.17554 -0.0489198 1.69894 111 106 89
2.18662 -0.0496363 1.72994 95 100 96
2.18926 -0.0501666 1.75451 80 89 88
2.19268 -0.0507187 1.7799 77 80 83
2.19523 -0.0512543 1.80476 90 86 86
2.18115 -0.0514018 1.81595 83 80 77
2.14975 -0.0511337 1.81237 75 73 67
2.12755 -0.0510752 1.8161 82 84 78
2.10545 -0.0510116 1.81956 71 87 104
2.11624 -0.051745 1.85146 65 90 114
2.11877 -0.0522818 1.87638 50 84 116
2.13757 -0.0532275 1.91606 47 80 114
2.15786 -0.0542218 1.95763 47 80 114
2.21372 -0.0561298 2.03242 61 90 116
2.25387 -0.0576641 2.09397 77 99 112
2.27601 -0.0587549 2.1396 85 101 104
2.27949 -0.0593725 2.16811 98 100 89
2.28291 -0.0599932 2.19678 102 106 88
2.28709 -0.0606383 2.2264 96 102 84
2.2904 -0.0612654 2.2554 96 101 88
2.29367 -0.0618957 2.28457 113 111 97
2.28735 -0.0622696 2.30431 116 112 98
2.29133 -0.0629263 2.33454 110 107 97
2.26525 -0.0627551 2.33402 104 104 98
2.24951 -0.0628635 2.34384 93 100 111
2.24325 -0.0632343 2.36341 76 98 118
2.25578 -0.0641395 2.403 71 99 127
2.26976 -0.0650957 2.4446 64 94 117
2.28285 -0.0660361 2.48571 84 104 124
2.28652 -0.0667112 2.51691 96 114 126
2.25064 -0.0662277 2.50435 117 127 134
2.21493 -0.0657344 2.49127 133 137 137
2.17092 -0.0649778 2.46804 159 159 153
2.16474 -0.0653438 2.48736 178 176 164
2.14937 -0.0654303 2.49601 194 192 180
2.13482 -0.065537 2.5054 196 193 183
2.12869 -0.0659001 2.52456 201 197 185
2.12256 -0.0662632 2.54372 202 198 186
2.11643 -0.0666263 2.56288 200 198 186
2.1103 -0.0669893 2.58205 200 198 186
2.09514 -0.0670634 2.59005 200 198 186
2.08003 -0.0671344 2.59789 201 199 187
2.06573 -0.0672266 2.6065 200 197 187
2.04252 -0.0670224 2.60356 200 197 187
2.02016 -0.0668367 2.60126 201 198 188
2.00605 -0.0669174 2.60927 201 198 188
1.98386 -0.0667217 2.60645 201 198 188
1.97797 -0.0670702 2.62484 201 198 188
1.97209 -0.0674185 2.64322 201 198 188
1.9662 -0.0677669 2.66161 201 198 188
1.95229 -0.0678362 2.66902 201 198 188
1.93114 -0.0676475 2.66622 200 197 187
1.90209 -0.0671713 2.65199 200 197 187
1.88187 -0.0669961 2.64956 200 197 187
1.86174 -0.0668156 2.64686 200 197 187
1.85608 -0.0671505 2.66453 200 197 187
1.84326 -0.0672239 2.67181 200 197 187
1.83047 -0.0672946 2.67895 200 197 187
1.82486 -0.0676269 2.69649 200 197 187
1.81214 -0.0676937 2.70343 202 197 187
1.80655 -0.0680247 2.7209 202 197 187
1.78754 -0.0678464 2.71797 202 197 187
1.76158 -0.0673938 2.70397 202 197 187
1.73644 -0.0669608 2.69065 202 197 187
1.71213 -0.0665476 2.67805 202 197 187
1.68793 -0.0661275 2.66508 202 197 187
1.6708 -0.0659749 2.66282 202 197 187
1.65375 -0.0658179 2.66033 203 199 187
1.63678 -0.0656564 2.65761 203 199 187
1.61988 -0.0654906 2.65465 203 199 187
1.60923 -0.0655721 2.66168 203 199 187
1.59793 -0.0656234 2.66746 203 199 187
1.59281 -0.0659265 2.68346 203 199 187
1.58225 -0.0660027 2.6902 203 199 187
1.57173 -0.0660768 2.69684 203 199 187
1.55043 -0.0656909 2.68465 203 199 187
1.52453 -0.0650975 2.6639 203 199 187
1.5095 -0.0649581 2.66166 203 199 187
1.50457 -0.06525 2.67707 203 199 187
1.50431 -0.0657459 2.70086 203 199 187
1.50999 -0.0665071 2.73558 203 199 187
1.50501 -0.0668021 2.75114 203 199 187
1.49475 -0.0668607 2.75697 204 200 188
1.47005 -0.0662648 2.73574 204 200 188
1.45531 -0.0661079 2.73257 204 200 188
1.43607 -0.0657376 2.72053 204 200 188
1.42148 -0.0655721 2.71691 204 200 188
1.40306 -0.0652215 2.70556 204 200 188
1.3938 -0.0652898 2.71156 204 200 188
2.11426 -0.0119565 -0.672662 70 93 136
2.11029 -0.0121913 -0.660269 66 91 136
2.11215 -0.0124605 -0.649666 67 92 135
2.1198 -0.0127659 -0.640751 66 91 134
2.1216 -0.0130383 -0.629977 67 95 137
2.12917 -0.0133484 -0.620823 65 95 137
2.13091 -0.013624 -0.609877 70 98 140
2.13264 -0.013901 -0.598863 72 101 140
2.12858 -0.014141 -0.586196 70 95 138
2.13028 -0.0144199 -0.575079 67 92 137
2.13768 -0.0147396 -0.565411 68 93 138
2.14619 -0.01507 -0.555902 68 93 138
2.15464 -0.0154032 -0.546242 68 98 142
2.15051 -0.015648 -0.533321 70 100 142
2.14637 -0.0158928 -0.5204 75 103 145
2.14224 -0.0161377 -0.507479 80 105 150
2.11997 -0.0162435 -0.490363 82 108 148
2.08645 -0.016257 -0.470912 126 141 162
2.04853 -0.016228 -0.450823 166 166 176
2.03328 -0.0163727 -0.435978 180 180 180
2.02933 -0.0166069 -0.423619 181 182 179
2.02537 -0.0168411 -0.41126 162 165 157
2.03822 -0.0172172 -0.402218 146 152 145
2.05101 -0.0175972 -0.392969 108 125 126
2.05815 -0.0179325 -0.382479 94 115 124
2.07082 -0.0183197 -0.372854 95 119 127
2.08453 -0.0187208 -0.363218 104 125 134
2.08042 -0.0189642 -0.350372 109 130 137
2.07631 -0.0192076 -0.337526 121 139 144
2.06668 -0.0193991 -0.323815 129 145 148
2.06809 -0.0196944 -0.311835 139 151 153
2.07609 -0.0200547 -0.300744 143 151 153
2.08294 -0.0204072 -0.289349 145 153 155
2.08536 -0.0207186 -0.277234 144 154 156
2.08667 -0.0210206 -0.264898 141 151 153
2.07702 -0.0212124 -0.251172 138 151 150
2.06632 -0.0213916 -0.237391 138 151 150
2.05672 -0.0215807 -0.223809 136 152 150
2.04715 -0.0217684 -0.210297 136 152 150
2.05385 -0.02213 -0.198422 140 156 154
2.06158 -0.0225059 -0.186509 140 156 154
2.07574 -0.0229563 -0.17499 142 158 156
2.08337 -0.0233387 -0.162734 139 155 153
2.09095 -0.023724 -0.150327 140 156 154
2.09312 -0.0240505 -0.137417 139 155 153
2.08884 -0.0243039 -0.124044 141 154 153
2.09096 -0.0246328 -0.111011 141 154 153
2.092 -0.0249505 -0.0978459 136 149 148
2.0877 -0.0252053 -0.0843974 137 148 147
2.08976 -0.0255379 -0.0711657 136 147 146
2.09816 -0.0259507 -0.0580276 135 146 145
2.11284 -0.026446 -0.0448597 135 146 145
2.12744 -0.0269459 -0.0314452 135 146 145
2.13565 -0.0273696 -0.0177318 133 144 143
2.13751 -0.0277147 -0.00384221 131 144 143
2.13305 -0.0279789 0.0100995 132 145 144
2.12858 -0.028243 0.0240412 129 142 141
2.12412 -0.0285072 0.0379832 128 141 140
2.12695 -0.0288703 0.0521034 128 141 140
2.14223 -0.0294065 0.0667083 127 141 144
2.15119 -0.0298612 0.081338 127 141 144
2.1601 -0.0303193 0.0961459 125 139 142
2.16172 -0.0306781 0.110761 127 141 144
2.16435 -0.0310533 0.125519 127 141 144
2.17312 -0.0315198 0.140772 126 139 145
2.17567 -0.0318994 0.155763 125 138 144
2.17819 -0.0322809 0.170849 125 138 144
2.17966 -0.0326488 0.185944 121 136 142
2.17498 -0.0329257 0.200557 121 136 142
2.1642 -0.0331092 0.214565 122 137 143
2.15243 -0.0332754 0.228383 121 136 142
2.14778 -0.0335506 0.242907 122 140 145
2.14314 -0.0338258 0.257431 121 139 144
2.1516 -0.0343101 0.273623 123 138 144
2.15397 -0.0347005 0.289182 121 135 143
2.15631 -0.0350927 0.304837 121 135 143
2.17265 -0.0357173 0.322672 117 131 139
2.1819 -0.0362312 0.339705 113 130 137
2.17711 -0.0365145 0.354653 113 130 139
2.16536 -0.0366796 0.368416 111 128 137
2.14669 -0.0367241 0.38085 106 120 128
2.1142 -0.0365251 0.390529 101 115 123
2.06403 -0.0360083 0.396404 93 112 135
2.02097 -0.0356013 0.403028 82 111 144
1.99777 -0.0355344 0.413189 77 109 151
1.97564 -0.0354802 0.423301 75 110 153
1.94182 -0.035208 0.430558 71 108 151
1.90325 -0.0348386 0.436283 64 102 147
1.87752 -0.0346945 0.444532 55 92 135
1.86746 -0.0348352 0.456286 39 71 115
1.86325 -0.0350842 0.469426 30 62 106
1.85905 -0.0353332 0.482567 30 65 108
1.85484 -0.0355821 0.495707 26 65 108
1.86125 -0.0360366 0.511765 30 68 113
1.90131 -0.0371523 0.5375 32 70 115
1.94308 -0.0383179 0.564423 34 64 108
1.96836 -0.0391717 0.587144 49 69 101
1.96385 -0.0394383 0.601216 66 75 106
1.94123 -0.0393376 0.609596 73 77 109
1.92534 -0.0393683 0.619861 69 72 107
1.92091 -0.0396309 0.633721 66 67 109
1.92216 -0.0400118 0.649501 76 77 119
1.93567 -0.0406523 0.669614 68 71 106
1.9557 -0.0414376 0.692324 51 56 79
1.96902 -0.0420889 0.713005 36 38 43
1.98321 -0.0427654 0.734294 47 47 47
1.9973 -0.0434471 0.755858 59 61 55
1.99917 -0.0438674 0.773 58 60 54
2.001 -0.0442896 0.790237 49 55 48
2.0028 -0.0447136 0.807571 49 55 48
2.00457 -0.0451394 0.825 59 65 58
1.99984 -0.04542 0.839805 83 86 73
1.98217 -0.0454044 0.849074 95 96 83
1.97102 -0.0455342 0.860967 86 88 77
1.95438 -0.0455336 0.870308 71 82 100
1.94331 -0.045659 0.881968 50 82 114
1.93866 -0.0459342 0.896493 37 72 113
1.94587 -0.0464927 0.916603 32 67 110
1.95394 -0.0470766 0.937328 30 65 108
1.96194 -0.0476641 0.958245 33 68 111
1.97622 -0.0484105 0.982506 34 69 110
2.00487 -0.0495194 1.01437 38 71 110
2.04056 -0.0508175 1.05045 50 75 99
2.07786 -0.0521725 1.08809 65 78 77
2.08714 -0.0528358 1.11157 73 80 71
2.0892 -0.0533205 1.13138 74 82 70
2.09211 -0.0538303 1.1518 80 87 78
2.10122 -0.0545041 1.17583 81 92 84
2.10404 -0.0550194 1.19655 72 94 99
2.10594 -0.0555138 1.21687 61 90 97
2.10868 -0.0560337 1.23783 67 86 88
2.10345 -0.0563434 1.25417 72 70 64
2.09822 -0.0566531 1.27052 77 74 64
2.10001 -0.0571538 1.29118 75 73 61
2.08776 -0.0572726 1.30321 74 72 60
2.05983 -0.0569548 1.30518 82 78 66
2.04073 -0.056873 1.31239 79 85 84
2.03559 -0.0571772 1.32845 69 87 104
2.03738 -0.0576777 1.3491 55 85 113
2.03223 -0.057983 1.36521 51 84 118
2.03397 -0.0584866 1.38602 48 82 119
2.02879 -0.0587929 1.40219 44 76 113
2.02362 -0.0590992 1.41836 42 74 111
2.02615 -0.0596321 1.44 47 82 116
2.06446 -0.06123 1.48758 50 85 119
2.12127 -0.0634006 1.54953 66 93 117
2.15569 -0.0649256 1.59615 78 91 97
2.15013 -0.0652554 1.61355 98 92 80
2.153 -0.0658433 1.63737 102 92 68
2.16425 -0.0666933 1.66782 109 96 69
2.18382 -0.0678093 1.7051 112 107 90
2.1865 -0.0684089 1.72954 103 105 99
2.18077 -0.0687477 1.74742 81 90 94
2.18339 -0.0693512 1.77207 77 82 85
2.17764 -0.0696913 1.79001 83 82 86
2.16361 -0.0697641 1.80106 92 90 90
2.14135 -0.0695657 1.80501 82 81 78
2.12743 -0.069632 1.81571 79 90 89
2.10533 -0.0694246 1.81918 70 91 100
2.10792 -0.0700293 1.84389 66 92 114
2.11046 -0.0706367 1.86874 53 85 117
2.12112 -0.0715218 1.90104 51 83 115
2.14065 -0.0727161 1.94173 46 77 111
2.19574 -0.0751402 2.01562 57 84 115
2.23512 -0.0770537 2.07626 73 98 115
2.26619 -0.0787015 2.13007 79 101 101
2.26969 -0.0794039 2.15849 92 102 83
2.27314 -0.0801094 2.18708 98 105 85
2.27654 -0.080818 2.21583 93 98 78
2.28069 -0.0815583 2.24554 97 102 89
2.28398 -0.0822733 2.27462 105 104 96
2.28721 -0.0829914 2.30387 110 108 96
2.2809 -0.0833654 2.32361 115 111 97
2.25563 -0.0830417 2.32383 104 105 97
2.23914 -0.0830331 2.33274 93 100 111
2.2329 -0.0834022 2.35222 78 97 120
2.24624 -0.0845078 2.39256 70 99 125
2.26962 -0.0860045 2.44416 67 95 123
2.28271 -0.0871247 2.48527 79 105 127
2.28638 -0.0878933 2.51646 95 114 128
2.25979 -0.0874962 2.51424 116 130 133
2.22406 -0.0867311 2.50125 131 137 136
2.19927 -0.0863795 2.49999 161 156 151
2.17382 -0.0859912 2.49751 182 176 169
2.15842 -0.0859929 2.50625 194 190 176
2.13469 -0.0856546 2.50497 201 197 185
2.11029 -0.0852796 2.50248 202 198 186
2.10421 -0.0856396 2.52147 201 197 185
2.09813 -0.0859995 2.54047 202 198 186
2.10111 -0.0867332 2.57055 200 195 185
2.095 -0.0870947 2.58963 200 195 185
2.0889 -0.0874562 2.60871 201 197 185
2.07382 -0.0874394 2.61646 194 191 181
2.05059 -0.0870711 2.6136 198 195 185
2.02821 -0.0867286 2.61138 198 195 185
2.00592 -0.0863805 2.60886 198 195 185
1.98373 -0.0860266 2.60604 198 195 185
1.97784 -0.086375 2.62443 198 195 185
1.97196 -0.0867234 2.64282 198 195 185
1.95802 -0.0867149 2.6503 198 195 185
1.94412 -0.0867036 2.65763 198 195 185
1.90771 -0.0856757 2.63365 199 196 186
1.88744 -0.0853592 2.63136 199 196 186
1.86727 -0.0850375 2.62879 199 196 186
1.86162 -0.0853724 2.64647 199 196 186
