ply
format ascii 1.0
comment pointcloud saved from PyCharm
element vertex 1366
property float32 x
property float32 y
property float32 z
property uchar blue
property uchar green
property uchar red
end_header
1.45108 -0.792102 -3.345 18 15 24
1.53688 -0.825254 -3.485 20 17 26
1.57854 -0.834016 -3.522 17 18 26
1.58703 -0.825254 -3.485 15 18 26
1.58712 -0.812467 -3.431 15 15 25
1.6118 -0.812467 -3.431 22 19 28
1.6279 -0.808205 -3.413 18 15 24
1.65246 -0.808205 -3.413 19 16 25
1.67701 -0.808205 -3.413 19 15 26
1.71054 -0.812467 -3.431 22 22 32
1.73522 -0.812467 -3.431 29 33 47
1.76914 -0.816729 -3.449 30 37 46
1.80332 -0.820992 -3.467 26 34 48
1.83775 -0.825254 -3.485 23 32 43
1.8826 -0.834016 -3.522 22 31 42
1.92798 -0.842778 -3.559 21 28 44
1.97499 -0.852013 -3.598 25 33 47
2.02257 -0.861248 -3.637 25 32 43
2.04873 -0.861248 -3.637 27 33 47
2.0749 -0.861248 -3.637 25 31 45
2.08951 -0.856512 -3.617 29 38 49
2.08161 -0.842778 -3.559 30 38 52
2.05274 -0.820992 -3.467 30 37 53
2.02495 -0.800153 -3.379 31 43 53
1.98861 -0.776473 -3.279 34 46 56
1.97293 -0.761318 -3.215 37 48 61
1.97743 -0.754214 -3.185 39 52 58
1.99092 -0.750662 -3.17 40 54 62
2.02326 -0.754214 -3.185 44 57 63
2.07573 -0.765107 -3.231 46 58 66
2.10936 -0.768896 -3.247 48 61 67
2.14323 -0.772684 -3.263 52 66 69
2.14546 -0.765107 -3.231 54 68 71
2.11769 -0.74711 -3.155 60 71 75
2.07119 -0.722956 -3.053 60 71 75
2.02802 -0.70046 -2.958 61 72 76
1.99596 -0.682226 -2.881 61 72 76
1.97399 -0.667781 -2.82 61 72 76
1.97801 -0.662335 -2.797 61 72 76
1.99813 -0.662335 -2.797 61 72 76
2.0096 -0.659493 -2.785 61 72 76
2.02089 -0.656651 -2.773 61 72 76
2.03274 -0.654047 -2.762 61 72 76
2.02734 -0.645995 -2.728 58 69 73
2.02221 -0.638181 -2.695 58 69 73
2.0166 -0.630367 -2.662 58 69 73
2.01969 -0.625394 -2.641 58 69 73
2.03097 -0.623026 -2.631 58 69 73
2.05769 -0.625394 -2.641 58 69 73
2.07669 -0.625394 -2.641 58 69 73
2.09569 -0.625394 -2.641 58 69 73
2.10668 -0.623026 -2.631 60 71 75
2.11672 -0.620421 -2.62 60 71 75
2.11112 -0.613317 -2.59 60 71 75
2.10509 -0.606213 -2.56 60 71 75
2.09115 -0.596977 -2.521 60 71 75
2.08586 -0.590347 -2.493 60 71 75
2.08017 -0.583717 -2.465 60 71 75
2.09024 -0.581585 -2.456 60 71 75
2.07701 -0.57306 -2.42 60 71 75
2.07192 -0.566904 -2.394 58 69 73
2.08216 -0.565009 -2.386 58 69 73
2.09933 -0.565009 -2.386 58 69 73
2.10851 -0.562878 -2.377 58 69 73
2.0961 -0.555063 -2.344 58 69 73
2.08322 -0.547249 -2.311 58 69 73
2.06441 -0.538014 -2.272 58 69 73
2.05236 -0.530673 -2.241 58 69 73
2.03433 -0.521911 -2.204 58 69 73
2.0167 -0.513386 -2.168 58 69 73
1.99387 -0.503677 -2.127 58 69 73
1.98933 -0.498705 -2.106 58 69 73
1.99211 -0.495626 -2.093 58 69 73
1.9947 -0.492548 -2.08 58 69 73
2.00387 -0.491127 -2.074 58 69 73
2.01198 -0.489469 -2.067 58 69 73
2.02096 -0.488049 -2.061 60 71 75
2.01702 -0.483549 -2.042 60 71 75
2.00684 -0.477629 -2.017 60 71 75
2.01534 -0.476208 -2.011 60 71 75
-2.19845 -0.755412 -3.096 254 255 252
-2.12627 -0.738088 -3.025 254 255 252
-2.14416 -0.751996 -3.082 255 255 234
-2.04556 -0.724913 -2.971 195 156 127
-1.90564 -0.682457 -2.797 167 131 111
-1.78777 -0.647078 -2.652 148 117 103
-1.75468 -0.641954 -2.631 125 103 96
-1.74235 -0.644394 -2.641 107 91 93
-1.73053 -0.647078 -2.652 90 79 86
-1.725 -0.652202 -2.673 92 84 95
-1.70577 -0.652202 -2.673 102 93 109
-1.69348 -0.654886 -2.684 108 98 108
-1.69476 -0.662938 -2.717 116 105 112
-1.67521 -0.662938 -2.717 122 111 113
-1.66237 -0.665622 -2.728 142 122 122
-1.66984 -0.676601 -2.773 170 139 133
-1.71415 -0.702953 -2.881 203 166 150
-1.78629 -0.741504 -3.039 250 218 193
-1.79752 -0.755412 -3.096 254 255 250
-1.79188 -0.762488 -3.125 254 255 252
-1.75297 -0.755412 -3.096 254 255 252
-1.72287 -0.751996 -3.082 254 255 252
-1.71615 -0.758828 -3.11 254 255 252
-1.72646 -0.773468 -3.17 254 255 252
-1.72783 -0.784448 -3.215 254 255 252
-1.7047 -0.784448 -3.215 254 255 252
-1.68994 -0.788352 -3.231 254 255 252
-1.67495 -0.792256 -3.247 254 255 252
-1.66787 -0.800063 -3.279 254 255 252
-1.66033 -0.807871 -3.311 254 255 252
-1.6365 -0.807871 -3.311 254 255 252
-1.61268 -0.807871 -3.311 254 255 252
-1.56583 -0.79616 -3.263 254 255 252
-1.47003 -0.758828 -3.11 254 255 252
-1.3648 -0.715397 -2.932 228 196 164
-1.28184 -0.682457 -2.797 156 127 114
-1.25631 -0.679529 -2.785 118 99 91
-1.2416 -0.682457 -2.797 97 80 72
-1.23152 -0.688069 -2.82 52 37 29
-1.24301 -0.706125 -2.894 33 28 18
-1.28343 -0.741504 -3.039 30 24 17
-1.32217 -0.777128 -3.185 25 20 15
-1.33761 -0.800063 -3.279 25 20 15
-1.32684 -0.807871 -3.311 20 18 12
-1.3164 -0.816167 -3.345 21 19 13
-1.2989 -0.820315 -3.362 17 15 9
-1.28761 -0.828611 -3.396 20 19 11
-1.27619 -0.837151 -3.431 20 20 14
-1.27777 -0.854719 -3.503 21 21 15
-1.2658 -0.863746 -3.54 21 20 17
-1.254 -0.873262 -3.579 20 19 16
-1.23477 -0.877898 -3.598 20 20 14
-1.20888 -0.877898 -3.598 21 20 17
-1.183 -0.877898 -3.598 20 21 18
-1.16322 -0.882534 -3.617 20 21 18
-1.1372 -0.882534 -3.617 20 21 18
-1.11732 -0.887414 -3.637 19 23 23
-1.09716 -0.892294 -3.657 19 23 23
-1.07085 -0.892294 -3.657 21 25 24
-1.04454 -0.892294 -3.657 22 26 25
-1.01266 -0.887414 -3.637 21 26 22
-0.981071 -0.882534 -3.617 15 15 15
-0.939734 -0.868382 -3.559 13 14 11
-0.895123 -0.850327 -3.485 13 14 11
-0.843587 -0.824463 -3.379 19 18 15
-0.787273 -0.792256 -3.247 19 25 24
-0.725094 -0.751996 -3.082 22 28 28
-0.66871 -0.715397 -2.932 20 29 28
-0.620227 -0.685141 -2.808 12 16 15
-0.590196 -0.673917 -2.762 15 13 13
-0.565576 -0.668305 -2.739 18 17 14
-0.552647 -0.676601 -2.773 14 14 8
-0.551139 -0.700025 -2.869 12 11 8
-0.569883 -0.751996 -3.082 14 11 8
-0.579876 -0.79616 -3.263 15 12 9
-0.57908 -0.828611 -3.396 22 23 20
-0.566244 -0.845935 -3.467 24 28 27
-0.546922 -0.854719 -3.503 22 28 27
-0.52172 -0.854719 -3.503 20 26 26
-0.491416 -0.845935 -3.467 19 25 25
-0.459208 -0.832759 -3.413 22 28 27
-0.425993 -0.816167 -3.345 20 26 25
-0.393998 -0.800063 -3.279 17 23 23
-0.363178 -0.784448 -3.215 15 15 15
-0.333702 -0.769808 -3.155 19 19 19
-0.303808 -0.751996 -3.082 19 19 19
-0.277706 -0.741504 -3.039 20 23 26
-0.252391 -0.7315 -2.998 23 29 36
-0.226741 -0.718569 -2.945 22 27 36
-0.202902 -0.709297 -2.907 19 21 31
-0.179609 -0.700025 -2.869 15 20 23
-0.157583 -0.693925 -2.844 20 18 18
-0.137123 -0.693925 -2.844 19 18 15
-0.115677 -0.688069 -2.82 19 16 13
-0.0949835 -0.685141 -2.808 20 19 16
-0.0744889 -0.682457 -2.797 39 35 28
-0.0545802 -0.685141 -2.808 51 44 34
-0.0346724 -0.690997 -2.832 57 47 38
-0.0144243 -0.697097 -2.857 58 48 39
0.00620933 -0.706125 -2.894 62 53 42
0.0272632 -0.712225 -2.919 67 58 47
0.0486933 -0.718569 -2.945 71 62 49
0.0708298 -0.728329 -2.985 76 67 56
0.0944076 -0.74492 -3.053 73 70 67
0.119116 -0.762488 -3.125 45 47 66
0.144317 -0.777128 -3.185 54 56 75
0.172167 -0.800063 -3.279 97 97 109
0.206981 -0.845935 -3.467 167 158 159
0.244633 -0.892294 -3.657 184 174 172
0.275462 -0.907178 -3.718 181 171 169
0.297253 -0.892294 -3.657 180 172 170
0.314891 -0.868382 -3.559 184 177 178
0.336956 -0.859354 -3.522 179 174 178
0.364146 -0.863746 -3.54 176 173 177
0.404692 -0.897174 -3.677 201 189 185
0.440878 -0.917426 -3.76 244 212 195
0.470667 -0.922793 -3.782 206 189 174
0.486818 -0.902298 -3.698 182 170 161
0.504953 -0.887414 -3.637 167 156 157
0.514325 -0.859354 -3.522 164 153 154
0.520357 -0.828611 -3.396 180 166 162
0.536608 -0.816167 -3.345 238 209 190
0.57207 -0.832759 -3.413 222 195 169
0.615679 -0.859354 -3.522 77 71 64
0.661948 -0.887414 -3.637 64 65 62
0.695681 -0.897174 -3.677 58 62 61
0.722135 -0.897174 -3.677 54 60 60
0.748588 -0.897174 -3.677 52 61 60
0.775042 -0.897174 -3.677 52 61 60
0.801496 -0.897174 -3.677 53 62 61
0.827949 -0.897174 -3.677 54 63 62
0.859282 -0.902298 -3.698 57 66 65
0.885887 -0.902298 -3.698 57 63 63
0.902375 -0.892294 -3.657 59 68 67
0.923605 -0.887414 -3.637 62 70 72
0.949771 -0.887414 -3.637 78 89 87
0.981304 -0.892294 -3.657 68 72 71
1.00761 -0.892294 -3.657 62 71 69
1.03392 -0.892294 -3.657 65 76 75
1.06023 -0.892294 -3.657 87 96 95
1.08654 -0.892294 -3.657 73 71 71
1.11285 -0.892294 -3.657 67 73 73
1.13293 -0.887414 -3.637 80 90 92
1.1591 -0.887414 -3.637 107 114 110
1.17875 -0.882534 -3.617 82 78 71
1.20477 -0.882534 -3.617 71 75 74
1.22432 -0.877898 -3.598 77 83 82
1.24361 -0.873262 -3.579 65 65 66
1.26226 -0.868382 -3.559 42 43 51
1.28099 -0.863746 -3.54 36 43 47
1.29982 -0.859354 -3.522 33 40 44
1.31123 -0.850327 -3.485 30 37 41
1.3156 -0.837151 -3.431 29 33 38
1.28716 -0.803967 -3.295 29 28 32
1.26113 -0.773468 -3.17 20 18 24
1.24222 -0.748336 -3.067 20 18 24
1.27624 -0.755412 -3.096 19 17 23
1.32955 -0.773468 -3.17 16 18 23
1.39886 -0.800063 -3.279 14 16 21
1.46583 -0.824463 -3.379 14 17 25
1.52895 -0.845935 -3.467 16 17 25
1.57002 -0.854719 -3.503 16 17 25
1.58703 -0.850327 -3.485 16 18 23
1.60377 -0.845935 -3.467 16 18 23
1.62026 -0.841543 -3.449 17 18 26
1.63649 -0.837151 -3.431 18 16 22
1.636 -0.824463 -3.379 18 15 24
1.6436 -0.816167 -3.345 19 16 25
1.66766 -0.816167 -3.345 22 19 28
1.68313 -0.812019 -3.328 30 27 36
1.72451 -0.820315 -3.362 30 31 39
1.76639 -0.828611 -3.396 27 28 36
1.81877 -0.841543 -3.449 29 26 35
1.87244 -0.854719 -3.503 23 24 32
1.91769 -0.863746 -3.54 22 23 31
1.96456 -0.873262 -3.579 20 24 29
1.99031 -0.873262 -3.579 26 24 30
2.01606 -0.873262 -3.579 22 24 34
2.0304 -0.868382 -3.559 24 31 40
2.04503 -0.863746 -3.54 27 36 45
2.05997 -0.859354 -3.522 28 37 46
2.04209 -0.841543 -3.449 27 36 47
2.02495 -0.824463 -3.379 29 39 46
2.00802 -0.807871 -3.311 35 45 52
2.0122 -0.800063 -3.279 35 48 54
2.02586 -0.79616 -3.263 39 52 58
2.04933 -0.79616 -3.263 39 51 59
2.08297 -0.800063 -3.279 44 56 64
2.11684 -0.803967 -3.295 44 59 65
2.14055 -0.803967 -3.295 47 63 66
2.14323 -0.79616 -3.263 49 65 68
2.12488 -0.780788 -3.2 50 66 69
2.09756 -0.762488 -3.125 56 71 72
2.04338 -0.734916 -3.012 56 71 72
2.00129 -0.712225 -2.919 54 69 70
1.98765 -0.700025 -2.869 54 69 70
1.97399 -0.688069 -2.82 54 69 70
1.98579 -0.685141 -2.808 54 69 70
1.99813 -0.682457 -2.797 54 69 70
2.01825 -0.682457 -2.797 54 69 70
2.02963 -0.679529 -2.785 54 69 70
2.04084 -0.676601 -2.773 54 69 70
2.04369 -0.670989 -2.75 58 73 74
2.04697 -0.665622 -2.728 58 73 74
2.03326 -0.654886 -2.684 58 73 74
2.03575 -0.649518 -2.662 58 73 74
2.03869 -0.644394 -2.641 58 73 74
2.05769 -0.644394 -2.641 58 73 74
2.08534 -0.647078 -2.652 58 73 74
2.09569 -0.644394 -2.641 58 73 74
2.11469 -0.644394 -2.641 56 71 72
2.11672 -0.63927 -2.62 56 71 72
2.11927 -0.63439 -2.6 56 71 72
2.10509 -0.62463 -2.56 56 71 72
2.09115 -0.615114 -2.521 56 71 72
2.07833 -0.606086 -2.484 56 71 72
2.08017 -0.601451 -2.465 56 71 72
2.08258 -0.597059 -2.447 56 71 72
2.07701 -0.590471 -2.42 58 73 74
2.07192 -0.584127 -2.394 58 73 74
2.08216 -0.582175 -2.386 58 73 74
2.09141 -0.579979 -2.377 58 73 74
2.07924 -0.571927 -2.344 58 73 74
2.06659 -0.563875 -2.311 58 73 74
2.04806 -0.554359 -2.272 58 73 74
2.03624 -0.546795 -2.241 58 73 74
2.02489 -0.539476 -2.211 58 73 74
2.00757 -0.530692 -2.175 59 74 75
1.99066 -0.522152 -2.14 59 74 75
1.98074 -0.515564 -2.113 59 74 75
1.98933 -0.513856 -2.106 59 74 75
1.99877 -0.512392 -2.1 59 74 75
2.01388 -0.512392 -2.1 59 74 75
2.02899 -0.512392 -2.1 59 74 75
2.0441 -0.512392 -2.1 59 74 75
2.05921 -0.512392 -2.1 58 70 72
2.06147 -0.50922 -2.087 58 70 72
2.05659 -0.50434 -2.067 58 70 72
2.05843 -0.501168 -2.054 58 70 72
-2.33976 -0.827673 -3.295 254 255 252
-2.29356 -0.819635 -3.263 254 255 252
-2.32713 -0.840232 -3.345 253 255 246
-2.17225 -0.792506 -3.155 254 238 199
-1.92949 -0.711371 -2.832 255 214 183
-1.74597 -0.650583 -2.59 210 179 151
-1.74068 -0.655607 -2.61 223 191 166
-1.7285 -0.658119 -2.62 219 190 164
-1.70965 -0.658119 -2.62 172 146 131
-1.6908 -0.658119 -2.62 103 90 102
-1.66557 -0.655607 -2.61 103 92 106
-1.64679 -0.655607 -2.61 111 99 109
-1.64111 -0.660882 -2.631 117 106 113
-1.63513 -0.666157 -2.652 130 114 117
-1.63556 -0.674195 -2.684 149 124 120
-1.67707 -0.699566 -2.785 178 143 136
-1.74449 -0.736491 -2.932 224 183 164
-1.88093 -0.80381 -3.2 254 237 209
-1.89448 -0.819635 -3.263 254 255 250
-1.85266 -0.811597 -3.231 254 255 252
-1.79487 -0.796274 -3.17 254 255 252
-1.73853 -0.781202 -3.11 254 255 252
-1.72443 -0.78497 -3.125 254 255 252
-1.73463 -0.800042 -3.185 254 255 252
-1.72783 -0.807577 -3.215 254 255 252
-1.7047 -0.807577 -3.215 254 255 252
-1.68157 -0.807577 -3.215 254 255 252
-1.6667 -0.811597 -3.231 254 255 252
-1.65159 -0.815616 -3.247 254 255 252
-1.63626 -0.819635 -3.263 254 255 252
-1.61278 -0.819635 -3.263 254 255 252
-1.57372 -0.811597 -3.231 254 255 252
-1.49241 -0.781202 -3.11 254 255 252
-1.37975 -0.733225 -2.919 254 255 252
-1.31267 -0.708357 -2.82 253 225 188
-1.25526 -0.688011 -2.739 173 139 107
-1.22563 -0.682485 -2.717 67 42 29
-1.21097 -0.685248 -2.728 41 31 22
-1.20619 -0.693788 -2.762 30 23 18
-1.22712 -0.717651 -2.857 30 23 18
-1.27203 -0.756586 -3.012 25 20 15
-1.3284 -0.80381 -3.2 23 18 13
-1.34413 -0.827673 -3.295 23 19 12
-1.33365 -0.835962 -3.328 22 17 12
-1.3164 -0.840232 -3.345 19 17 11
-1.29233 -0.840232 -3.345 19 17 11
-1.27471 -0.844502 -3.362 20 18 12
-1.26317 -0.853043 -3.396 22 20 14
-1.25807 -0.866356 -3.449 21 19 13
-1.25257 -0.87992 -3.503 20 20 14
-1.24033 -0.889214 -3.54 18 19 16
-1.22825 -0.899011 -3.579 20 19 16
-1.20888 -0.903783 -3.598 20 19 16
-1.183 -0.903783 -3.598 19 20 17
-1.16322 -0.908556 -3.617 20 21 18
-1.1372 -0.908556 -3.617 17 21 20
-1.11732 -0.91358 -3.637 19 23 22
-1.09116 -0.91358 -3.637 20 24 23
-1.06499 -0.91358 -3.637 21 25 24
-1.04454 -0.918604 -3.657 21 25 24
-1.01266 -0.91358 -3.637 20 26 25
-0.981071 -0.908556 -3.617 21 25 24
-0.934718 -0.889214 -3.54 22 26 25
-0.87663 -0.857313 -3.413 20 24 24
-0.818622 -0.823654 -3.279 21 25 24
-0.754055 -0.781202 -3.11 19 25 24
-0.689803 -0.736491 -2.932 20 26 26
-0.635183 -0.699566 -2.785 13 17 16
-0.595268 -0.676958 -2.695 11 11 11
-0.568827 -0.668669 -2.662 14 13 10
-0.551947 -0.671432 -2.673 15 12 9
-0.543678 -0.685248 -2.728 12 11 8
-0.553444 -0.72368 -2.881 12 11 8
-0.572472 -0.777686 -3.096 12 11 8
-0.577033 -0.815616 -3.247 14 13 10
-0.570384 -0.840232 -3.345 23 23 23
-0.557425 -0.857313 -3.413 23 27 26
-0.535681 -0.861835 -3.431 22 28 28
-0.510997 -0.861835 -3.431 22 28 28
-0.481352 -0.853043 -3.396 19 25 25
-0.450058 -0.840232 -3.345 18 24 23
-0.415551 -0.819635 -3.263 18 24 23
-0.384506 -0.80381 -3.2 12 16 16
-0.351317 -0.781202 -3.11 16 16 16
-0.322914 -0.766885 -3.053 23 23 23
-0.292866 -0.746287 -2.971 25 25 25
-0.269116 -0.739756 -2.945 29 35 42
-0.24574 -0.733225 -2.919 24 30 44
-0.222815 -0.726945 -2.894 23 29 43
-0.20025 -0.720666 -2.869 20 26 40
-0.177293 -0.711371 -2.832 17 22 31
-0.155589 -0.705343 -2.808 16 15 19
-0.134857 -0.70258 -2.797 18 16 16
-0.11375 -0.696551 -2.773 20 17 14
-0.0930216 -0.690774 -2.75 27 24 21
-0.0726513 -0.685248 -2.728 49 42 32
-0.053239 -0.688011 -2.739 64 53 42
-0.0336684 -0.690774 -2.75 68 57 46
-0.0140002 -0.696551 -2.773 69 58 45
0.00597546 -0.699566 -2.785 74 64 48
0.0263386 -0.708357 -2.82 71 62 49
0.0472383 -0.717651 -2.857 96 83 68
0.0686705 -0.726945 -2.894 102 91 78
0.0906659 -0.736491 -2.932 86 86 87
0.11378 -0.749804 -2.985 51 52 73
0.13965 -0.774169 -3.082 64 68 87
0.171327 -0.819635 -3.263 118 112 123
0.210264 -0.884693 -3.522 173 167 165
0.247376 -0.928902 -3.698 183 175 173
0.273981 -0.928902 -3.698 184 174 172
0.292457 -0.903783 -3.598 184 174 172
0.308344 -0.875399 -3.485 186 178 176
0.329972 -0.866356 -3.449 182 175 176
0.354785 -0.866356 -3.449 182 175 176
0.395998 -0.903783 -3.598 208 193 185
0.435953 -0.933926 -3.718 249 212 196
0.470667 -0.950002 -3.782 211 190 174
0.492215 -0.939201 -3.739 189 173 163
0.516199 -0.933926 -3.718 179 166 160
0.534039 -0.918604 -3.657 178 166 162
0.536752 -0.87992 -3.503 188 176 172
0.542062 -0.848773 -3.379 229 202 189
0.554974 -0.831692 -3.311 255 255 244
0.590681 -0.848773 -3.379 255 245 223
0.641017 -0.884693 -3.522 85 78 73
0.684329 -0.908556 -3.617 61 61 62
0.718207 -0.918604 -3.657 51 51 52
0.744517 -0.918604 -3.657 43 43 43
0.770826 -0.918604 -3.657 51 54 57
0.801496 -0.923627 -3.677 50 56 56
0.832678 -0.928902 -3.698 40 46 46
0.86393 -0.933926 -3.718 40 43 46
0.885887 -0.928902 -3.698 46 54 56
0.902375 -0.918604 -3.657 46 56 58
0.928684 -0.918604 -3.657 34 43 47
0.954994 -0.918604 -3.657 43 51 53
0.981304 -0.918604 -3.657 45 54 58
1.00761 -0.918604 -3.657 45 55 57
1.02827 -0.91358 -3.637 31 40 44
1.05443 -0.91358 -3.637 48 54 54
1.0806 -0.91358 -3.637 50 59 58
1.11285 -0.918604 -3.657 45 54 53
1.13293 -0.91358 -3.637 37 45 47
1.1591 -0.91358 -3.637 46 56 58
1.18526 -0.91358 -3.637 47 54 58
1.21809 -0.918604 -3.657 38 45 49
1.2444 -0.918604 -3.657 40 42 47
1.25681 -0.908556 -3.617 47 50 53
1.26936 -0.899011 -3.579 42 47 50
1.28099 -0.889214 -3.54 34 41 45
1.2928 -0.87992 -3.503 32 39 43
1.31123 -0.875399 -3.485 29 36 40
1.3225 -0.866356 -3.449 26 29 37
1.31333 -0.844502 -3.362 26 24 30
1.29813 -0.819635 -3.263 20 18 24
1.28394 -0.796274 -3.17 20 18 24
1.31911 -0.80381 -3.2 15 17 22
1.36856 -0.819635 -3.263 16 18 23
1.41976 -0.835962 -3.328 15 17 22
1.46583 -0.848773 -3.379 16 17 25
1.50513 -0.857313 -3.413 16 18 23
1.52207 -0.853043 -3.396 16 18 23
1.55424 -0.857313 -3.413 15 17 22
1.57879 -0.857313 -3.413 16 18 23
1.60335 -0.857313 -3.413 19 17 23
1.61169 -0.848773 -3.379 18 16 22
1.6113 -0.835962 -3.328 18 16 22
1.61903 -0.827673 -3.295 20 17 26
1.63476 -0.823654 -3.279 36 34 40
1.65835 -0.823654 -3.279 32 30 36
1.70707 -0.835962 -3.328 23 24 32
1.75754 -0.848773 -3.379 21 21 31
1.82826 -0.870877 -3.467 20 17 26
1.87244 -0.87992 -3.503 22 20 26
1.92798 -0.893987 -3.559 20 16 29
1.95359 -0.893987 -3.559 17 17 27
1.96863 -0.889214 -3.54 22 20 26
1.97325 -0.87992 -3.503 23 21 27
1.98818 -0.875399 -3.485 21 22 30
2.00286 -0.870877 -3.467 23 29 36
2.01727 -0.866356 -3.449 29 35 42
2.02077 -0.857313 -3.413 28 35 44
2.01476 -0.844502 -3.362 29 37 44
2.01833 -0.835962 -3.328 32 39 48
2.03184 -0.831692 -3.311 34 46 56
2.06621 -0.835962 -3.328 40 50 57
2.09016 -0.835962 -3.328 41 54 60
2.1249 -0.840232 -3.345 42 54 62
2.14896 -0.840232 -3.345 43 59 62
2.15094 -0.831692 -3.311 49 59 66
2.14323 -0.819635 -3.263 48 62 65
2.11492 -0.800042 -3.185 51 66 67
2.07809 -0.777686 -3.096 55 70 71
2.03388 -0.753069 -2.998 55 70 71
1.99306 -0.730211 -2.907 56 71 72
1.97933 -0.717651 -2.857 56 71 72
1.97399 -0.708357 -2.82 56 71 72
1.98579 -0.705343 -2.808 56 71 72
1.99813 -0.70258 -2.797 56 71 72
2.0096 -0.699566 -2.785 56 71 72
2.02089 -0.696551 -2.773 56 71 72
2.03274 -0.693788 -2.762 56 71 72
2.04369 -0.690774 -2.75 55 70 71
2.04697 -0.685248 -2.728 55 70 71
2.0416 -0.676958 -2.695 55 70 71
2.04416 -0.671432 -2.673 55 70 71
2.04718 -0.666157 -2.652 55 70 71
2.07405 -0.668669 -2.662 55 70 71
2.0932 -0.668669 -2.662 55 70 71
2.10442 -0.666157 -2.652 55 70 71
2.11469 -0.663394 -2.641 54 69 70
2.11672 -0.658119 -2.62 54 69 70
2.11112 -0.650583 -2.59 54 69 70
2.09686 -0.640536 -2.55 54 69 70
2.09115 -0.633251 -2.521 54 69 70
2.07833 -0.623957 -2.484 54 69 70
2.08776 -0.621445 -2.474 54 69 70
2.08258 -0.614663 -2.447 54 69 70
2.08474 -0.610142 -2.429 56 68 70
2.07971 -0.603611 -2.403 56 68 70
2.07431 -0.59708 -2.377 56 68 70
2.06942 -0.5908 -2.352 56 68 70
2.05706 -0.582511 -2.319 56 68 70
2.03172 -0.570705 -2.272 56 68 70
2.01381 -0.56116 -2.234 56 68 70
2.00898 -0.555382 -2.211 56 68 70
1.99833 -0.548098 -2.182 56 68 70
1.98818 -0.541064 -2.154 56 68 70
1.97856 -0.534282 -2.127 56 68 70
1.98074 -0.530766 -2.113 56 68 70
1.98933 -0.529007 -2.106 56 68 70
1.99877 -0.5275 -2.1 56 68 70
2.01964 -0.529007 -2.106 56 68 70
2.03479 -0.529007 -2.106 56 68 70
2.05675 -0.530766 -2.113 56 68 70
2.07195 -0.530766 -2.113 56 68 70
2.08024 -0.529007 -2.106 56 68 70
2.08942 -0.5275 -2.1 56 68 70
2.09751 -0.525742 -2.093 56 68 70
-2.3994 -0.873082 -3.379 254 255 252
-2.37509 -0.873082 -3.379 254 255 252
-2.35078 -0.873082 -3.379 253 255 234
-2.08274 -0.781614 -3.025 249 217 192
-1.76461 -0.669217 -2.59 218 190 166
-1.68665 -0.646479 -2.502 185 158 140
-1.67532 -0.649063 -2.512 179 153 138
-1.66978 -0.653972 -2.531 175 151 136
-1.65157 -0.653972 -2.531 148 127 124
-1.63337 -0.653972 -2.531 110 93 99
-1.60303 -0.649063 -2.512 113 101 111
-1.58496 -0.649063 -2.512 120 108 113
-1.59059 -0.658881 -2.55 131 115 117
-1.60307 -0.6718 -2.6 148 126 126
-1.61606 -0.685237 -2.652 169 138 132
-1.70537 -0.731746 -2.832 193 159 141
-1.86825 -0.811328 -3.14 242 189 172
-1.98614 -0.873082 -3.379 255 253 228
-1.9717 -0.877475 -3.396 254 255 250
-1.91803 -0.864297 -3.345 254 255 252
-1.83847 -0.838975 -3.247 254 255 252
-1.7553 -0.811328 -3.14 254 255 252
-1.73271 -0.811328 -3.14 254 255 252
-1.74279 -0.826831 -3.2 254 255 252
-1.72783 -0.830707 -3.215 254 255 252
-1.69675 -0.826831 -3.2 254 255 252
-1.66588 -0.822956 -3.185 254 255 252
-1.62749 -0.815204 -3.155 254 255 252
-1.58954 -0.807453 -3.125 254 255 252
-1.55953 -0.803577 -3.11 254 255 252
-1.5159 -0.792466 -3.067 254 255 252
-1.48702 -0.788849 -3.053 254 255 252
-1.41947 -0.764302 -2.958 254 255 250
-1.35045 -0.738205 -2.857 218 183 160
-1.30196 -0.722702 -2.797 81 51 41
-1.2658 -0.713659 -2.762 51 34 26
-1.25089 -0.716501 -2.773 32 28 21
-1.2416 -0.722702 -2.797 28 24 17
-1.25292 -0.741306 -2.869 27 21 14
-1.2821 -0.771279 -2.985 26 20 13
-1.31975 -0.807453 -3.125 24 18 11
-1.35455 -0.84311 -3.263 22 17 12
-1.35759 -0.859905 -3.328 21 16 11
-1.34046 -0.864297 -3.345 21 16 11
-1.30971 -0.859905 -3.328 18 14 7
-1.29233 -0.864297 -3.345 19 14 9
-1.28116 -0.873082 -3.379 19 17 11
-1.27619 -0.886518 -3.431 20 20 14
-1.27121 -0.900471 -3.485 18 19 16
-1.25936 -0.910031 -3.522 19 18 15
-1.24699 -0.919592 -3.559 18 19 16
-1.22825 -0.924759 -3.579 18 19 16
-1.20888 -0.929669 -3.598 19 19 19
-1.183 -0.929669 -3.598 19 20 17
-1.15711 -0.929669 -3.598 20 20 20
-1.13123 -0.929669 -3.598 17 21 20
-1.11118 -0.934578 -3.617 20 24 23
-1.09116 -0.939746 -3.637 20 24 23
-1.07085 -0.944913 -3.657 20 24 23
-1.04454 -0.944913 -3.657 21 25 24
-1.01823 -0.944913 -3.657 21 25 24
-0.981071 -0.934578 -3.617 21 25 24
-0.924948 -0.905122 -3.503 22 26 25
-0.86353 -0.86869 -3.362 23 27 26
-0.791409 -0.81908 -3.17 22 26 25
-0.720353 -0.767661 -2.971 17 23 22
-0.66063 -0.725545 -2.808 14 20 19
-0.617165 -0.699189 -2.706 11 11 11
-0.58577 -0.685237 -2.652 12 10 10
-0.56434 -0.682394 -2.641 12 11 8
-0.549676 -0.68782 -2.662 14 11 8
-0.548063 -0.710558 -2.75 12 11 8
-0.560744 -0.754225 -2.919 13 10 7
-0.575061 -0.803577 -3.11 13 12 9
-0.571346 -0.830707 -3.215 16 16 16
-0.564586 -0.855512 -3.311 21 27 27
-0.549095 -0.86869 -3.362 22 28 28
-0.527562 -0.873082 -3.379 21 27 27
-0.50072 -0.86869 -3.362 22 28 28
-0.471714 -0.859905 -3.328 19 25 25
-0.439026 -0.84311 -3.263 19 25 25
-0.405617 -0.822956 -3.185 13 19 19
-0.373691 -0.803577 -3.11 11 11 11
-0.340246 -0.778255 -3.012 19 17 17
-0.311491 -0.760943 -2.945 24 24 24
-0.285276 -0.747766 -2.894 26 30 30
-0.263268 -0.744407 -2.881 27 34 45
-0.241531 -0.741306 -2.869 27 33 47
-0.22089 -0.741306 -2.869 25 31 45
-0.198505 -0.734846 -2.844 21 27 41
-0.17579 -0.725545 -2.808 18 24 38
-0.153649 -0.716501 -2.773 17 22 33
-0.13259 -0.710558 -2.75 15 17 27
-0.111452 -0.702032 -2.717 14 19 22
-0.0907891 -0.693505 -2.684 28 27 24
-0.0708936 -0.68782 -2.662 60 49 38
-0.0517423 -0.68782 -2.662 77 64 49
-0.0328604 -0.693505 -2.684 84 69 54
-0.0136064 -0.696347 -2.695 81 68 53
0.00580596 -0.699189 -2.706 82 69 54
0.0254793 -0.704874 -2.728 83 70 55
0.0456676 -0.713659 -2.762 119 105 88
0.0663688 -0.722702 -2.797 117 109 93
0.0872026 -0.728645 -2.82 59 52 61
0.108405 -0.734846 -2.844 36 34 40
0.132853 -0.757584 -2.932 107 95 91
0.168019 -0.826831 -3.2 156 142 138
0.210264 -0.910031 -3.522 179 170 165
0.251523 -0.971527 -3.76 186 179 174
0.275462 -0.960675 -3.718 186 178 176
0.292457 -0.929669 -3.598 184 176 174
0.305159 -0.891169 -3.449 188 180 178
0.321649 -0.86869 -3.362 186 178 176
0.342339 -0.859905 -3.328 186 178 176
0.385542 -0.905122 -3.503 212 197 189
0.428801 -0.944913 -3.657 246 211 195
0.47328 -0.982637 -3.803 212 193 177
0.497876 -0.977211 -3.782 194 178 166
0.528 -0.982637 -3.803 187 172 164
0.552293 -0.977211 -3.782 183 170 164
0.560349 -0.944913 -3.657 203 188 180
0.556179 -0.89582 -3.467 245 218 200
0.552292 -0.851378 -3.295 254 255 247
0.5732 -0.847244 -3.279 254 255 252
0.614991 -0.873082 -3.379 255 255 239
0.669761 -0.914682 -3.54 87 75 71
0.710351 -0.934578 -3.617 54 54 54
0.736373 -0.934578 -3.617 45 41 41
0.766611 -0.939746 -3.637 52 52 52
0.801496 -0.950081 -3.677 50 56 56
0.837181 -0.960675 -3.718 36 41 44
0.873689 -0.971527 -3.76 34 39 42
0.895709 -0.966101 -3.739 45 53 55
0.90731 -0.950081 -3.677 46 55 54
0.928684 -0.944913 -3.657 36 40 45
0.960217 -0.950081 -3.677 36 43 47
0.981304 -0.944913 -3.657 44 51 55
1.0021 -0.939746 -3.637 44 51 55
1.02827 -0.939746 -3.637 29 36 40
1.05443 -0.939746 -3.637 38 44 44
1.0806 -0.939746 -3.637 45 52 56
1.10677 -0.939746 -3.637 40 47 51
1.13916 -0.944913 -3.657 29 33 38
1.16547 -0.944913 -3.657 41 47 54
1.19178 -0.944913 -3.657 41 48 57
1.21809 -0.944913 -3.657 30 38 45
1.2444 -0.944913 -3.657 24 31 35
1.26376 -0.939746 -3.637 38 42 47
1.27609 -0.929669 -3.598 33 44 48
1.28099 -0.914682 -3.54 31 40 44
1.2928 -0.905122 -3.503 30 37 41
1.31123 -0.900471 -3.485 26 34 36
1.3225 -0.891169 -3.449 27 32 35
1.31997 -0.873082 -3.379 21 23 28
1.32399 -0.859905 -3.328 19 17 23
1.32161 -0.84311 -3.263 22 19 23
1.35168 -0.847244 -3.279 18 16 22
1.38869 -0.855512 -3.311 18 16 22
1.42701 -0.864297 -3.345 16 17 25
1.45845 -0.86869 -3.362 15 16 24
1.47514 -0.864297 -3.345 14 16 21
1.49159 -0.859905 -3.328 15 17 22
1.50779 -0.855512 -3.311 18 16 22
1.53161 -0.855512 -3.311 19 16 25
1.55543 -0.855512 -3.311 18 15 24
1.56399 -0.847244 -3.279 18 16 22
1.57983 -0.84311 -3.263 19 16 25
1.58758 -0.834841 -3.231 27 25 31
1.61083 -0.834841 -3.231 38 36 37
1.63407 -0.834841 -3.231 25 22 31
1.69835 -0.855512 -3.311 24 21 30
1.76639 -0.877475 -3.396 23 20 29
1.83775 -0.900471 -3.485 16 16 26
1.8826 -0.910031 -3.522 16 16 26
1.92798 -0.919592 -3.559 19 15 26
1.94316 -0.914682 -3.54 16 16 26
1.95862 -0.910031 -3.522 17 18 26
1.97325 -0.905122 -3.503 16 18 23
1.96765 -0.891169 -3.449 16 17 25
1.98206 -0.886518 -3.431 22 19 28
1.99622 -0.881867 -3.413 18 20 30
2.0107 -0.877475 -3.396 23 28 37
2.01476 -0.86869 -3.362 30 35 44
2.02864 -0.864297 -3.345 34 40 47
2.06314 -0.86869 -3.362 34 43 52
2.08732 -0.86869 -3.362 37 46 55
2.11151 -0.86869 -3.362 38 51 57
2.1249 -0.864297 -3.345 39 51 59
2.14896 -0.864297 -3.345 40 55 61
2.15094 -0.855512 -3.311 43 58 64
2.14323 -0.84311 -3.263 49 60 64
2.11492 -0.822956 -3.185 53 62 66
2.08749 -0.803577 -3.11 55 67 69
2.04338 -0.778255 -3.012 54 66 68
2.0102 -0.757584 -2.932 54 66 68
1.97933 -0.738205 -2.857 54 66 68
1.96559 -0.725545 -2.808 54 66 68
1.97801 -0.722702 -2.797 54 66 68
1.98956 -0.719602 -2.785 54 66 68
2.00094 -0.716501 -2.773 54 66 68
1.99611 -0.707716 -2.739 54 66 68
1.99962 -0.702032 -2.717 54 66 68
2.00282 -0.696347 -2.695 54 66 68
2.01395 -0.693505 -2.684 54 66 68
2.02493 -0.690663 -2.673 54 66 68
2.03575 -0.68782 -2.662 54 66 68
2.0549 -0.68782 -2.662 54 66 68
2.08262 -0.690663 -2.673 54 66 68
2.0932 -0.68782 -2.662 54 66 68
2.11235 -0.68782 -2.662 54 66 68
2.11469 -0.682394 -2.641 55 67 69
2.10865 -0.674384 -2.61 55 67 69
2.09482 -0.664049 -2.57 55 67 69
2.08864 -0.656297 -2.54 55 67 69
2.07539 -0.646479 -2.502 55 67 69
2.06997 -0.639244 -2.474 55 67 69
2.08017 -0.636919 -2.465 55 67 69
2.08258 -0.632268 -2.447 55 67 69
2.08474 -0.627617 -2.429 53 65 67
2.07192 -0.618573 -2.394 53 65 67
2.07431 -0.614181 -2.377 53 65 67
2.06238 -0.605654 -2.344 53 65 67
2.04287 -0.59506 -2.303 53 65 67
2.01741 -0.582916 -2.256 53 65 67
2.00029 -0.573356 -2.219 53 65 67
1.99626 -0.567671 -2.197 53 65 67
1.99192 -0.561987 -2.175 53 65 67
1.98818 -0.556561 -2.154 51 63 65
1.99066 -0.552943 -2.14 51 63 65
1.98731 -0.547776 -2.12 51 63 65
1.99594 -0.545967 -2.113 51 63 65
2.00448 -0.544158 -2.106 51 63 65
2.01964 -0.544158 -2.106 51 63 65
2.03479 -0.544158 -2.106 51 63 65
2.03728 -0.540799 -2.093 51 63 65
2.04646 -0.539249 -2.087 53 65 67
2.06147 -0.539249 -2.087 53 65 67
2.07649 -0.539249 -2.087 53 65 67
2.0915 -0.539249 -2.087 53 65 67
-1.96909 -0.736451 -2.773 254 255 252
-2.0609 -0.778678 -2.932 254 255 252
-2.04885 -0.782131 -2.945 231 202 183
-1.76947 -0.682538 -2.57 188 168 149
-1.67944 -0.654653 -2.465 165 144 135
-1.62598 -0.640577 -2.412 150 129 126
-1.61396 -0.642702 -2.42 141 122 119
-1.60843 -0.647482 -2.438 141 122 119
-1.59676 -0.649872 -2.447 130 114 116
-1.57916 -0.649872 -2.447 112 95 106
-1.55007 -0.645092 -2.429 115 101 111
-1.52691 -0.642702 -2.42 129 113 115
-1.54318 -0.657043 -2.474 140 121 118
-1.55436 -0.669525 -2.521 161 130 129
-1.59656 -0.695817 -2.62 183 150 141
-1.76559 -0.778678 -2.932 205 171 153
-1.98011 -0.883847 -3.328 249 197 172
-2.03787 -0.920763 -3.467 255 255 235
-2.00247 -0.915982 -3.449 254 255 250
-1.94727 -0.901907 -3.396 254 255 252
-1.85659 -0.870834 -3.279 254 255 252
-1.77207 -0.841886 -3.17 254 255 252
-1.73271 -0.833919 -3.14 254 255 252
-1.71829 -0.837902 -3.155 254 255 252
-1.67947 -0.829935 -3.125 254 255 252
-1.61881 -0.810813 -3.053 254 255 252
-1.5754 -0.799924 -3.012 254 255 252
-1.53258 -0.789036 -2.971 254 255 252
-1.49137 -0.778678 -2.932 254 255 252
-1.45122 -0.768586 -2.894 254 255 252
-1.41211 -0.75876 -2.857 254 255 247
-1.39156 -0.75876 -2.857 160 125 102
-1.371 -0.75876 -2.857 75 50 51
-1.3443 -0.755307 -2.844 48 35 29
-1.32989 -0.75876 -2.857 45 29 24
-1.32034 -0.765134 -2.881 37 26 20
-1.31675 -0.775226 -2.919 29 21 14
-1.31883 -0.789036 -2.971 26 22 15
-1.33938 -0.814531 -3.067 21 19 13
-1.37444 -0.849853 -3.2 20 19 11
-1.3983 -0.879333 -3.311 23 18 13
-1.40271 -0.897392 -3.379 21 18 15
-1.38533 -0.901907 -3.396 24 18 16
-1.34728 -0.892877 -3.362 22 17 12
-1.30971 -0.883847 -3.328 17 15 9
-1.28577 -0.883847 -3.328 16 14 8
-1.28761 -0.901907 -3.396 20 18 12
-1.30297 -0.930324 -3.503 19 18 15
-1.2982 -0.945196 -3.559 18 18 18
-1.27975 -0.950508 -3.579 17 18 15
-1.254 -0.950508 -3.579 18 19 16
-1.22825 -0.950508 -3.579 18 18 18
-1.20888 -0.955554 -3.598 17 17 17
-1.183 -0.955554 -3.598 19 19 19
-1.15711 -0.955554 -3.598 15 19 18
-1.13123 -0.955554 -3.598 19 20 17
-1.11118 -0.9606 -3.617 17 21 21
-1.08516 -0.9606 -3.617 17 21 20
-1.06499 -0.965911 -3.637 19 23 22
-1.04454 -0.971223 -3.657 20 24 23
-1.01266 -0.965911 -3.637 18 24 24
-0.965339 -0.945196 -3.559 18 24 23
-0.905937 -0.911202 -3.431 18 24 23
-0.833993 -0.862336 -3.247 19 25 25
-0.762199 -0.810813 -3.053 18 24 24
-0.695622 -0.761947 -2.869 19 25 24
-0.644397 -0.727421 -2.739 10 16 15
-0.609639 -0.709893 -2.673 12 11 8
-0.58334 -0.701394 -2.641 12 11 8
-0.566691 -0.704316 -2.652 12 11 8
-0.558762 -0.718657 -2.706 11 10 7
-0.562014 -0.748933 -2.82 12 11 8
-0.573422 -0.792754 -2.985 13 12 9
-0.580608 -0.833919 -3.14 13 12 9
-0.577033 -0.862336 -3.247 20 18 18
-0.570384 -0.888362 -3.345 19 25 25
-0.551872 -0.897392 -3.379 19 25 25
-0.527562 -0.897392 -3.379 20 26 26
-0.495657 -0.883847 -3.328 20 26 26
-0.464769 -0.870834 -3.279 20 26 26
-0.430549 -0.849853 -3.2 20 26 26
-0.396066 -0.825951 -3.11 12 18 18
-0.361916 -0.799924 -3.012 12 12 12
-0.328385 -0.772039 -2.907 22 22 22
-0.300808 -0.755307 -2.844 24 24 24
-0.277981 -0.748933 -2.82 29 34 43
-0.25879 -0.75212 -2.832 27 34 50
-0.239426 -0.755307 -2.844 25 32 48
-0.218965 -0.755307 -2.844 22 29 45
-0.197667 -0.75212 -2.832 19 26 42
-0.17435 -0.739638 -2.785 18 24 38
-0.152375 -0.730343 -2.75 16 21 32
-0.130469 -0.718657 -2.706 15 20 29
-0.109196 -0.706972 -2.662 14 17 25
-0.0886243 -0.695817 -2.62 17 15 15
-0.0689762 -0.68785 -2.59 41 29 20
-0.0501485 -0.685194 -2.58 86 70 58
-0.0315871 -0.685194 -2.58 111 98 78
-0.0131267 -0.690506 -2.6 93 83 61
0.00562144 -0.695817 -2.62 82 69 49
0.0247694 -0.704316 -2.652 101 87 70
0.0445598 -0.715736 -2.695 113 98 78
0.0644705 -0.721579 -2.717 115 105 89
0.0843577 -0.7245 -2.728 28 21 23
0.103984 -0.7245 -2.728 23 19 20
0.126193 -0.739638 -2.785 27 23 23
0.161823 -0.818515 -3.082 49 29 24
0.206981 -0.920763 -3.467 139 127 118
0.2544 -1.01 -3.803 184 175 170
0.277018 -0.993 -3.739 189 180 175
0.290913 -0.950508 -3.579 189 182 177
0.301974 -0.906422 -3.413 189 182 177
0.313708 -0.870834 -3.279 187 180 175
0.332361 -0.858086 -3.231 187 179 177
0.373765 -0.901907 -3.396 212 197 189
0.41731 -0.945196 -3.559 242 210 193
0.47328 -1.01 -3.803 214 193 177
0.506432 -1.02168 -3.847 195 177 165
0.537302 -1.02779 -3.87 193 177 165
0.561786 -1.02168 -3.847 194 180 170
0.569696 -0.987423 -3.718 219 196 185
0.570938 -0.945196 -3.559 252 235 214
0.557823 -0.883847 -3.328 254 255 250
0.562012 -0.853837 -3.215 254 255 252
0.593878 -0.866585 -3.263 254 255 252
0.649139 -0.911202 -3.431 255 255 241
0.695229 -0.94015 -3.54 75 67 65
0.732505 -0.955554 -3.598 49 45 45
0.762395 -0.9606 -3.617 51 51 51
0.797136 -0.971223 -3.657 51 54 57
0.84191 -0.993 -3.739 37 39 44
0.878801 -1.00442 -3.782 34 37 40
0.90074 -0.998578 -3.76 43 48 51
0.912492 -0.982112 -3.698 45 53 55
0.928684 -0.971223 -3.657 29 34 37
0.954994 -0.971223 -3.657 34 38 43
0.981304 -0.971223 -3.657 43 47 52
1.00761 -0.971223 -3.657 40 47 51
1.03392 -0.971223 -3.657 27 34 38
1.06023 -0.971223 -3.657 34 38 43
1.08654 -0.971223 -3.657 41 49 56
1.11894 -0.976535 -3.677 36 44 51
1.13916 -0.971223 -3.657 26 33 37
1.16547 -0.971223 -3.657 38 45 49
1.19178 -0.971223 -3.657 39 48 52
1.21809 -0.971223 -3.657 29 37 44
1.2444 -0.971223 -3.657 26 29 37
1.26376 -0.965911 -3.637 36 42 49
1.27609 -0.955554 -3.598 33 43 50
1.28787 -0.945196 -3.559 30 38 45
1.2928 -0.930324 -3.503 29 37 44
1.29769 -0.915982 -3.449 27 34 38
1.30218 -0.901907 -3.396 23 30 34
1.30005 -0.883847 -3.328 20 18 24
1.29813 -0.866585 -3.263 18 16 22
1.30216 -0.853837 -3.215 19 17 23
1.33189 -0.858086 -3.231 18 15 24
1.36856 -0.866585 -3.263 15 16 24
1.40568 -0.875083 -3.295 15 16 24
1.42939 -0.875083 -3.295 16 13 22
1.45309 -0.875083 -3.295 18 16 22
1.46246 -0.866585 -3.263 18 16 22
1.47865 -0.862336 -3.247 17 16 20
1.50201 -0.862336 -3.247 18 16 22
1.51785 -0.858086 -3.231 18 16 22
1.53346 -0.853837 -3.215 15 13 19
1.54933 -0.849853 -3.2 19 15 21
1.56498 -0.84587 -3.185 29 28 32
1.58042 -0.841886 -3.17 34 29 33
1.6184 -0.849853 -3.2 24 21 25
1.67373 -0.866585 -3.263 20 18 24
1.75754 -0.897392 -3.379 20 16 22
1.81877 -0.915982 -3.449 19 19 29
1.84358 -0.915982 -3.449 16 17 25
1.88789 -0.925543 -3.485 17 18 26
1.91297 -0.925543 -3.485 18 15 24
1.94805 -0.930324 -3.503 19 16 25
1.95297 -0.920763 -3.467 16 17 25
1.95738 -0.911202 -3.431 15 16 24
1.96184 -0.901907 -3.396 16 16 26
1.98627 -0.901907 -3.396 16 17 25
2.00064 -0.897392 -3.379 18 21 29
2.01476 -0.892877 -3.362 23 30 39
2.01833 -0.883847 -3.328 27 34 43
2.0527 -0.888362 -3.345 32 40 47
2.08732 -0.892877 -3.362 34 43 52
2.11151 -0.892877 -3.362 37 46 55
2.1141 -0.883847 -3.328 40 51 55
2.12712 -0.879333 -3.311 46 55 59
2.13015 -0.870834 -3.279 46 60 63
2.13272 -0.862336 -3.247 47 61 64
2.12488 -0.849853 -3.2 52 66 69
2.11769 -0.837902 -3.155 56 67 71
2.08069 -0.814531 -3.067 56 67 71
2.02802 -0.785583 -2.958 56 67 71
1.98765 -0.761947 -2.869 56 67 71
1.96559 -0.745746 -2.808 56 67 71
1.96104 -0.736451 -2.773 56 67 71
1.98099 -0.736451 -2.773 56 67 71
1.98434 -0.730343 -2.75 56 67 71
1.97206 -0.718657 -2.706 56 67 71
1.95914 -0.706972 -2.662 56 67 71
1.95526 -0.698739 -2.631 56 67 71
1.97419 -0.698739 -2.631 56 67 71
2.00069 -0.701394 -2.641 56 67 71
2.03575 -0.706972 -2.662 56 67 71
2.07188 -0.712814 -2.684 56 67 71
2.09119 -0.712814 -2.684 56 67 71
2.10185 -0.709893 -2.673 56 67 71
2.11235 -0.706972 -2.662 56 67 71
2.11469 -0.701394 -2.641 56 67 71
2.10057 -0.690506 -2.6 56 67 71
2.08667 -0.679883 -2.56 56 67 71
2.07302 -0.669525 -2.521 56 67 71
2.06793 -0.662089 -2.493 56 67 71
2.06243 -0.654653 -2.465 56 67 71
2.07257 -0.652262 -2.456 56 67 71
2.06726 -0.645092 -2.429 56 67 71
2.06242 -0.638187 -2.403 56 67 71
2.05721 -0.631282 -2.377 56 67 71
2.05249 -0.624642 -2.352 56 67 71
2.04742 -0.618003 -2.327 56 67 71
2.02868 -0.60738 -2.287 56 67 71
2.01741 -0.599147 -2.256 56 67 71
2.01381 -0.593304 -2.234 56 67 71
2.00898 -0.587196 -2.211 56 67 71
2.00474 -0.581353 -2.189 56 67 71
2.00757 -0.577635 -2.175 57 68 72
2.01019 -0.573916 -2.161 57 68 72
2.01262 -0.570198 -2.147 57 68 72
2.02145 -0.568339 -2.14 57 68 72
2.03018 -0.56648 -2.133 57 68 72
2.03977 -0.564887 -2.127 57 68 72
2.02899 -0.557716 -2.1 57 68 72
2.02463 -0.552405 -2.08 57 68 72
2.02096 -0.547359 -2.061 56 68 70
2.02295 -0.543906 -2.048 56 68 70
2.03768 -0.543906 -2.048 56 68 70
2.07146 -0.548952 -2.067 56 68 70
-1.78375 -0.685207 -2.512 254 255 252
-1.75865 -0.682479 -2.502 255 255 232
-1.71491 -0.672387 -2.465 181 156 143
-1.63108 -0.6462 -2.369 148 130 125
-1.59087 -0.636926 -2.335 130 114 116
-1.57407 -0.636926 -2.335 127 113 116
-1.56861 -0.641563 -2.352 119 102 108
-1.55697 -0.643745 -2.36 120 105 111
-1.55108 -0.648382 -2.377 122 107 113
-1.53398 -0.648382 -2.377 124 110 113
-1.50603 -0.643745 -2.36 130 114 116
-1.48905 -0.643745 -2.36 142 124 119
-1.48829 -0.650837 -2.386 159 135 128
-1.51984 -0.672387 -2.465 173 145 135
-1.59046 -0.711939 -2.61 186 153 139
-1.85591 -0.840688 -3.082 211 175 155
-1.99022 -0.912427 -3.345 249 198 171
-2.03787 -0.945706 -3.467 255 255 236
-2.00247 -0.940796 -3.449 254 255 250
-1.92777 -0.917064 -3.362 254 255 252
-1.82035 -0.876967 -3.215 254 255 252
-1.7307 -0.844507 -3.096 254 255 252
-1.66207 -0.821594 -3.012 254 255 252
-1.59684 -0.799772 -2.932 254 255 252
-1.522 -0.772494 -2.832 254 255 252
-1.44065 -0.741126 -2.717 254 255 252
-1.40959 -0.735124 -2.695 254 255 252
-1.38453 -0.732124 -2.684 254 255 252
-1.34335 -0.720395 -2.641 255 255 240
-1.32435 -0.720395 -2.641 120 87 73
-1.31079 -0.723395 -2.652 75 52 41
-1.32337 -0.741126 -2.717 50 39 28
-1.33645 -0.759674 -2.785 41 31 22
-1.36179 -0.78586 -2.881 36 28 21
-1.37691 -0.806864 -2.958 33 25 18
-1.38037 -0.821594 -3.012 30 22 15
-1.39028 -0.840688 -3.082 27 21 14
-1.40051 -0.8606 -3.155 22 18 11
-1.41799 -0.885695 -3.247 24 19 14
-1.43672 -0.912427 -3.345 23 19 12
-1.44898 -0.935886 -3.431 23 19 12
-1.43177 -0.940796 -3.449 25 20 15
-1.39961 -0.935886 -3.431 21 19 13
-1.3609 -0.926339 -3.396 20 19 11
-1.3164 -0.912427 -3.345 16 14 8
-1.30547 -0.921701 -3.379 17 15 9
-1.3077 -0.940796 -3.449 19 17 11
-1.31674 -0.965618 -3.54 19 19 13
-1.31242 -0.981439 -3.598 18 17 14
-1.28654 -0.981439 -3.598 19 18 15
-1.26065 -0.981439 -3.598 17 18 15
-1.22825 -0.976256 -3.579 17 18 15
-1.20888 -0.981439 -3.598 16 17 14
-1.183 -0.981439 -3.598 17 17 17
-1.151 -0.976256 -3.579 18 18 18
-1.12525 -0.976256 -3.579 16 20 19
-1.10534 -0.981439 -3.598 17 21 20
-1.07946 -0.981439 -3.598 17 21 20
-1.05357 -0.981439 -3.598 19 23 22
-1.02769 -0.981439 -3.598 18 24 24
-0.990944 -0.970801 -3.559 17 23 23
-0.940385 -0.945706 -3.467 18 24 24
-0.874251 -0.903153 -3.311 17 23 22
-0.798804 -0.848325 -3.11 19 25 24
-0.72575 -0.792952 -2.907 19 25 24
-0.669679 -0.7534 -2.762 14 20 19
-0.628869 -0.729123 -2.673 9 9 9
-0.60234 -0.720395 -2.641 11 10 7
-0.58577 -0.723395 -2.652 12 11 8
-0.578229 -0.738125 -2.706 12 11 8
-0.575074 -0.759674 -2.785 11 10 7
-0.579352 -0.792952 -2.907 11 10 7
-0.589175 -0.836596 -3.067 11 10 7
-0.594476 -0.876967 -3.215 14 13 10
-0.591428 -0.90779 -3.328 17 23 23
-0.57908 -0.926339 -3.396 18 24 24
-0.557425 -0.930976 -3.413 17 26 25
-0.527562 -0.921701 -3.379 18 27 26
-0.490742 -0.898789 -3.295 16 25 24
-0.457965 -0.881331 -3.231 17 26 25
-0.426513 -0.864692 -3.17 16 25 24
-0.3925 -0.840688 -3.082 8 14 14
-0.356989 -0.81041 -2.971 12 12 12
-0.321269 -0.775768 -2.844 22 22 22
-0.293298 -0.756401 -2.773 25 25 25
-0.269997 -0.747126 -2.739 30 35 46
-0.253399 -0.756401 -2.773 27 34 50
-0.234459 -0.759674 -2.785 27 33 52
-0.215347 -0.762947 -2.797 23 30 46
-0.194387 -0.759674 -2.785 19 26 42
-0.172159 -0.750127 -2.75 15 23 37
-0.150546 -0.741126 -2.717 14 22 36
-0.128348 -0.726123 -2.662 13 20 31
-0.107473 -0.714666 -2.62 15 21 28
-0.0869329 -0.701028 -2.57 14 18 23
-0.0676446 -0.692845 -2.54 20 17 21
-0.049196 -0.69039 -2.531 21 17 18
-0.0310974 -0.692845 -2.54 23 16 17
-0.0128743 -0.695572 -2.55 27 18 19
0.00553561 -0.703756 -2.58 28 19 20
0.0242838 -0.709211 -2.6 35 25 23
0.0435016 -0.717667 -2.631 56 37 29
0.0629282 -0.723395 -2.652 70 52 52
0.0826569 -0.729123 -2.673 37 34 43
0.102307 -0.732124 -2.684 24 22 28
0.122613 -0.738125 -2.706 25 23 24
0.155312 -0.806864 -2.958 31 29 29
0.198682 -0.90779 -3.328 100 88 84
0.244633 -0.997532 -3.657 188 179 174
0.267979 -0.986622 -3.617 188 180 173
0.281809 -0.945706 -3.467 190 182 175
0.292949 -0.903153 -3.311 189 182 177
0.304715 -0.868783 -3.185 188 181 176
0.324543 -0.8606 -3.155 188 181 176
0.36441 -0.903153 -3.311 211 200 189
0.412971 -0.960708 -3.522 233 205 190
0.47328 -1.03736 -3.803 210 191 175
0.512356 -1.06163 -3.892 199 182 167
0.546743 -1.07418 -3.938 194 179 164
0.571716 -1.06791 -3.915 200 184 172
0.58272 -1.03736 -3.803 238 205 191
0.570938 -0.970801 -3.559 255 255 239
0.560673 -0.912427 -3.345 254 255 250
0.556768 -0.868783 -3.185 254 255 252
0.585142 -0.876967 -3.215 254 255 252
0.629651 -0.90779 -3.328 254 255 252
0.677357 -0.940796 -3.449 223 212 199
0.724565 -0.970801 -3.559 66 60 53
0.75839 -0.981439 -3.598 54 54 54
0.801496 -1.00299 -3.677 52 55 58
0.837181 -1.01417 -3.718 39 38 42
0.868809 -1.0199 -3.739 39 38 42
0.890678 -1.01417 -3.718 45 50 53
0.90731 -1.00299 -3.677 43 48 51
0.918526 -0.986622 -3.617 29 32 35
0.944548 -0.986622 -3.617 34 36 41
0.975937 -0.992077 -3.637 40 47 51
1.00761 -0.997532 -3.657 38 45 49
1.03958 -1.00299 -3.677 25 29 34
1.07212 -1.00872 -3.698 35 40 43
1.09872 -1.00872 -3.698 42 46 51
1.11894 -1.00299 -3.677 32 41 45
1.14539 -1.00299 -3.677 23 31 33
1.17185 -1.00299 -3.677 36 40 45
1.19178 -0.997532 -3.657 38 45 49
1.21143 -0.992077 -3.637 27 35 42
1.23079 -0.986622 -3.617 22 25 33
1.25681 -0.986622 -3.617 33 39 46
1.27609 -0.981439 -3.598 34 42 49
1.28787 -0.970801 -3.559 29 37 44
1.27952 -0.945706 -3.467 27 35 42
1.27775 -0.926339 -3.396 24 32 39
1.2761 -0.90779 -3.328 22 26 31
1.28091 -0.894424 -3.279 19 21 26
1.27903 -0.876967 -3.215 18 16 22
1.29001 -0.868783 -3.185 16 18 23
1.31911 -0.872875 -3.2 15 16 24
1.34842 -0.876967 -3.215 15 16 24
1.38521 -0.885695 -3.247 15 16 24
1.40162 -0.881331 -3.231 13 14 22
1.43193 -0.885695 -3.247 18 16 22
1.44811 -0.881331 -3.231 18 16 22
1.47136 -0.881331 -3.231 18 16 22
1.4872 -0.876967 -3.215 17 15 21
1.50329 -0.872875 -3.2 18 15 24
1.51915 -0.868783 -3.185 17 15 21
1.5348 -0.864692 -3.17 18 15 24
1.55024 -0.8606 -3.155 29 26 30
1.57294 -0.8606 -3.155 29 26 30
1.60322 -0.864692 -3.17 21 18 22
1.64911 -0.876967 -3.215 19 16 25
1.71385 -0.898789 -3.295 18 16 22
1.76392 -0.912427 -3.345 19 16 25
1.79708 -0.917064 -3.362 19 17 23
1.82126 -0.917064 -3.362 18 16 22
1.82679 -0.90779 -3.328 16 17 25
1.84128 -0.903153 -3.311 16 17 25
1.83806 -0.89006 -3.263 15 16 24
1.82559 -0.872875 -3.2 18 15 24
1.85728 -0.876967 -3.215 18 15 24
1.91784 -0.894424 -3.279 18 15 24
1.96038 -0.903153 -3.311 18 15 24
1.9842 -0.903153 -3.311 23 27 27
1.99832 -0.898789 -3.295 33 35 45
2.03184 -0.903153 -3.311 32 40 47
2.05566 -0.903153 -3.311 32 45 51
2.07948 -0.903153 -3.311 33 45 53
2.08297 -0.894424 -3.279 37 49 59
2.10656 -0.894424 -3.279 42 54 62
2.10936 -0.885695 -3.247 44 57 63
2.12222 -0.881331 -3.231 45 59 62
2.13484 -0.876967 -3.215 47 61 64
2.1479 -0.872875 -3.2 55 66 70
2.12004 -0.852417 -3.125 54 65 69
2.05545 -0.817775 -2.998 54 65 69
2.00497 -0.789406 -2.894 54 65 69
1.96559 -0.765948 -2.808 54 65 69
1.96952 -0.759674 -2.785 54 65 69
1.98099 -0.756401 -2.773 54 65 69
1.98434 -0.750127 -2.75 54 65 69
1.96404 -0.735124 -2.695 54 65 69
1.95178 -0.723395 -2.652 54 65 69
1.95526 -0.717667 -2.631 54 65 69
1.97419 -0.717667 -2.631 54 65 69
2.00902 -0.723395 -2.652 54 65 69
2.05257 -0.732124 -2.684 54 65 69
2.08887 -0.738125 -2.706 54 65 69
2.10833 -0.738125 -2.706 54 65 69
2.1105 -0.732124 -2.684 54 65 69
2.11235 -0.726123 -2.662 54 65 69
2.11469 -0.720395 -2.641 55 66 70
2.10865 -0.711939 -2.61 55 66 70
2.09482 -0.701028 -2.57 55 66 70
2.07302 -0.687662 -2.521 55 66 70
2.06046 -0.677569 -2.484 55 66 70
2.0549 -0.669932 -2.456 55 66 70
2.05738 -0.665022 -2.438 55 66 70
2.04514 -0.655475 -2.403 55 66 70
2.03324 -0.6462 -2.369 54 65 69
2.02086 -0.636926 -2.335 54 65 69
2.03068 -0.634744 -2.327 54 65 69
2.03334 -0.630379 -2.311 54 65 69
2.03577 -0.626015 -2.295 54 65 69
2.03798 -0.621651 -2.279 54 65 69
2.04806 -0.619741 -2.272 54 65 69
2.04987 -0.615377 -2.256 54 65 69
2.03863 -0.607194 -2.226 54 65 69
2.03433 -0.601193 -2.204 57 68 72
2.03624 -0.597101 -2.189 57 68 72
2.03886 -0.593282 -2.175 57 68 72
2.04129 -0.589463 -2.161 57 68 72
2.04351 -0.585645 -2.147 57 68 72
2.05224 -0.583735 -2.14 57 68 72
2.04831 -0.57828 -2.12 57 68 72
2.03728 -0.570915 -2.093 57 68 72
2.02096 -0.562186 -2.061 57 68 72
2.01702 -0.557003 -2.042 57 68 72
2.03171 -0.557003 -2.042 57 68 72
2.07146 -0.563823 -2.067 57 68 72
-1.71274 -0.675282 -2.412 210 193 178
-1.64759 -0.656245 -2.344 182 160 146
-1.59108 -0.640286 -2.287 138 121 118
-1.55879 -0.633847 -2.264 122 109 108
-1.54795 -0.636087 -2.272 123 111 107
-1.54711 -0.642526 -2.295 120 108 104
-1.54127 -0.647006 -2.311 119 105 101
-1.52992 -0.649245 -2.319 124 108 111
-1.51846 -0.651485 -2.327 125 109 112
-1.50172 -0.651485 -2.327 129 113 115
-1.47476 -0.647006 -2.311 142 122 122
-1.45814 -0.647006 -2.311 150 127 123
-1.45648 -0.653725 -2.335 163 136 123
-1.48716 -0.675282 -2.412 175 144 130
-1.54781 -0.711118 -2.54 194 163 144
-1.73487 -0.806587 -2.881 224 183 159
-1.87717 -0.883298 -3.155 255 214 185
-1.94617 -0.926973 -3.311 255 255 243
-1.8579 -0.895897 -3.2 254 255 252
-1.74256 -0.850822 -3.039 254 255 252
-1.6386 -0.810227 -2.894 254 255 252
-1.53728 -0.769911 -2.75 254 255 252
-1.48715 -0.754513 -2.695 254 255 252
-1.42147 -0.730716 -2.61 254 255 252
-1.35486 -0.705799 -2.521 254 255 252
-1.3118 -0.69264 -2.474 254 255 250
-1.28929 -0.690121 -2.465 228 193 170
-1.286 -0.69796 -2.493 98 66 49
-1.28231 -0.705799 -2.521 68 47 36
-1.28373 -0.716718 -2.56 56 40 28
-1.28508 -0.727916 -2.6 41 32 19
-1.31265 -0.754513 -2.695 36 30 18
-1.359 -0.792869 -2.832 33 26 16
-1.40433 -0.831784 -2.971 32 24 17
-1.43463 -0.862861 -3.082 26 20 13
-1.44591 -0.883298 -3.155 25 19 12
-1.45749 -0.904576 -3.231 25 19 12
-1.46266 -0.922494 -3.295 24 20 13
-1.46821 -0.941252 -3.362 25 20 15
-1.47366 -0.96057 -3.431 23 22 14
-1.47178 -0.975688 -3.485 23 21 15
-1.45418 -0.980727 -3.503 21 19 13
-1.42164 -0.975688 -3.485 20 18 12
-1.37493 -0.96057 -3.431 17 15 9
-1.34316 -0.95553 -3.413 16 14 8
-1.33251 -0.965609 -3.449 15 13 7
-1.33538 -0.986047 -3.522 17 15 9
-1.33831 -1.00732 -3.598 19 19 13
-1.31936 -1.01264 -3.617 17 16 13
-1.30048 -1.01824 -3.637 18 17 14
-1.26731 -1.01264 -3.617 18 16 16
-1.24129 -1.01264 -3.617 16 16 16
-1.21527 -1.01264 -3.617 15 15 15
-1.183 -1.00732 -3.598 12 16 15
-1.151 -1.002 -3.579 14 18 17
-1.12525 -1.002 -3.579 15 19 18
-1.09336 -0.996405 -3.559 15 19 18
-1.06206 -0.991086 -3.54 13 19 18
-1.03132 -0.986047 -3.522 17 21 20
-1.00598 -0.986047 -3.522 16 20 19
-0.965328 -0.970648 -3.467 17 23 22
-0.911905 -0.941252 -3.362 17 23 22
-0.844942 -0.895897 -3.2 17 23 22
-0.763102 -0.831784 -2.971 18 24 23
-0.698287 -0.78307 -2.797 18 24 23
-0.650767 -0.751434 -2.684 10 16 15
-0.618988 -0.736595 -2.631 10 9 6
-0.60006 -0.736595 -2.631 11 11 5
-0.587979 -0.745274 -2.662 12 11 8
-0.590196 -0.773271 -2.762 10 9 6
-0.597582 -0.810227 -2.894 10 9 6
-0.602869 -0.846903 -3.025 13 10 7
-0.608961 -0.887498 -3.17 11 10 7
-0.609268 -0.922494 -3.295 15 14 11
-0.600491 -0.946011 -3.379 20 24 23
-0.585048 -0.96057 -3.431 17 23 23
-0.557425 -0.95553 -3.413 18 24 24
-0.522254 -0.936492 -3.345 17 26 25
-0.485976 -0.913535 -3.263 17 23 23
-0.451445 -0.891697 -3.185 19 25 25
-0.422476 -0.879099 -3.14 16 25 24
-0.39059 -0.858661 -3.067 10 14 13
-0.355427 -0.828145 -2.958 16 16 16
-0.317202 -0.78615 -2.808 22 22 22
-0.286212 -0.757593 -2.706 27 31 31
-0.263491 -0.748354 -2.673 31 36 52
-0.246271 -0.754513 -2.695 28 34 53
-0.228734 -0.760673 -2.717 26 32 51
-0.209187 -0.760673 -2.717 25 31 50
-0.188873 -0.757593 -2.706 21 27 46
-0.168716 -0.754513 -2.695 19 25 44
