ply
format ascii 1.0
comment pointcloud saved from PyCharm
element vertex 1315
property float32 x
property float32 y
property float32 z
property uchar blue
property uchar green
property uchar red
end_header
2.15803 0.411628 0.987364 46 56 63
2.15963 0.414282 1.00243 41 51 46
2.1476 0.41434 1.01127 42 56 51
2.13558 0.414398 1.02011 37 48 46
2.11639 0.413058 1.02548 39 45 45
2.10441 0.413115 1.03428 30 39 38
2.11268 0.417171 1.05319 24 30 23
2.15393 0.427825 1.08905 43 44 29
2.19056 0.437682 1.12332 52 52 33
2.20772 0.443743 1.14817 52 56 38
2.19486 0.443805 1.15763 53 57 46
2.17413 0.442267 1.16288 58 62 51
2.15447 0.440928 1.16859 45 54 52
2.1417 0.44099 1.17798 30 55 79
2.12216 0.439651 1.1836 19 55 87
2.11615 0.441113 1.19677 17 56 87
2.12437 0.445579 1.2182 18 57 88
2.13328 0.450245 1.24037 16 52 84
2.13439 0.453312 1.25829 16 50 82
2.12876 0.454977 1.27242 22 55 89
2.12211 0.456443 1.28605 22 63 99
2.1163 0.458109 1.30031 16 59 96
2.12512 0.462981 1.32381 13 51 89
2.14188 0.469658 1.3527 19 52 86
2.15826 0.476336 1.38188 20 55 89
2.17605 0.483418 1.4125 16 53 89
2.17731 0.486893 1.43281 19 53 90
2.17926 0.490569 1.45386 19 51 88
2.18101 0.494247 1.47506 19 52 91
2.19133 0.499931 1.50244 15 53 91
2.19347 0.503811 1.52459 20 52 89
2.2032 0.509498 1.55241 21 53 90
2.21433 0.515588 1.5817 20 55 89
2.2251 0.521679 1.61124 20 51 85
2.23639 0.527973 1.64167 20 49 80
2.23886 0.532261 1.66607 22 47 76
2.25032 0.538758 1.69762 21 47 69
2.25308 0.54325 1.72306 6 29 53
2.26468 0.549952 1.75575 21 46 75
2.28658 0.559266 1.7971 22 54 86
2.29897 0.566373 1.83171 25 57 87
2.32229 0.576295 1.87576 24 51 82
2.3362 0.584009 1.913 24 51 82
2.34966 0.591726 1.95055 19 46 77
2.37457 0.602459 1.99843 21 48 79
2.3682 0.605356 2.0206 19 48 79
2.40538 0.619511 2.0807 24 53 84
2.43245 0.631258 2.13323 32 54 86
2.48421 0.649642 2.20883 40 63 87
2.50211 0.659385 2.25562 72 94 112
2.52021 0.669332 2.30351 109 127 132
2.5137 0.672845 2.32953 111 125 128
2.48164 0.669518 2.33187 111 129 134
2.46235 0.669611 2.34606 111 128 135
2.45554 0.673126 2.3723 109 126 133
2.44853 0.676641 2.39868 116 128 136
2.42904 0.676735 2.41301 118 130 138
2.38519 0.669984 2.40279 119 131 139
2.33106 0.660211 2.38138 121 136 142
2.30078 0.657081 2.38367 123 140 141
2.27068 0.65395 2.38582 122 139 140
2.24076 0.650818 2.38783 124 140 143
2.21103 0.647685 2.38971 123 139 142
2.17194 0.64173 2.38099 124 140 143
2.14333 0.638797 2.38328 126 140 143
2.12496 0.638885 2.39679 126 139 145
2.09662 0.635951 2.3989 125 138 144
2.05857 0.629991 2.3894 127 140 146
2.03066 0.627054 2.39119 130 144 147
2.00358 0.624318 2.39362 133 144 148
1.98563 0.624405 2.40681 133 144 148
1.97658 0.627315 2.43095 132 142 149
1.95856 0.627402 2.44421 137 141 146
1.94053 0.627489 2.45746 143 147 147
1.91385 0.624751 2.45959 147 145 146
1.87815 0.618985 2.44962 142 135 137
1.8349 0.610593 2.42897 111 104 106
1.80114 0.605227 2.42007 111 104 106
1.7677 0.599859 2.41093 131 124 125
1.75873 0.60277 2.43502 149 145 146
1.74901 0.605479 2.4584 148 144 144
1.73163 0.605563 2.47117 149 145 145
1.70682 0.60302 2.47318 153 149 150
1.68952 0.603104 2.4859 153 149 149
1.66438 0.600358 2.4869 156 152 152
1.64716 0.600442 2.49957 155 151 151
1.62994 0.600525 2.51223 155 153 147
1.62032 0.603438 2.53679 160 159 142
1.58852 0.598062 2.52645 164 164 153
1.57137 0.598145 2.53905 166 167 159
1.5474 0.595599 2.54045 166 169 161
1.53033 0.595681 2.553 168 171 163
1.50658 0.593134 2.55422 169 171 165
1.48958 0.593216 2.56672 168 174 167
1.4535 0.585608 2.54579 170 177 168
1.43028 0.583058 2.54663 170 176 169
1.41358 0.583139 2.55891 171 173 167
1.38524 0.578361 2.54977 160 160 154
1.36245 0.575809 2.55028 154 151 148
1.34029 0.573459 2.55159 148 140 138
1.32949 0.575968 2.57452 148 140 138
1.319 0.578681 2.59847 147 139 137
1.29652 0.576128 2.59877 141 139 133
1.28003 0.576207 2.61089 152 149 139
1.25289 0.571423 2.60087 159 157 151
1.22646 0.566841 2.59158 161 160 152
1.20505 0.564487 2.59233 164 164 153
1.18379 0.562133 2.59298 165 164 156
1.15803 0.557547 2.58319 166 163 160
1.14209 0.557624 2.59491 163 161 155
1.12615 0.557701 2.60663 164 160 153
1.11021 0.557778 2.61835 165 165 154
1.09427 0.557855 2.63007 161 163 157
1.07402 0.5557 2.63122 155 164 162
1.06239 0.558009 2.65351 154 162 164
1.04645 0.558086 2.66523 152 162 164
1.03052 0.558163 2.67695 152 161 165
1.00646 0.553774 2.66716 151 161 163
0.978664 0.54715 2.64638 141 151 153
0.955182 0.542758 2.63617 155 164 155
0.935821 0.540599 2.63667 177 180 167
0.916935 0.538643 2.63806 178 176 164
0.901564 0.538717 2.64937 200 195 178
0.879175 0.534525 2.6396 190 186 172
0.85703 0.530331 2.62965 180 176 162
0.835451 0.52634 2.62054 181 179 165
0.817272 0.52438 2.62142 182 183 170
0.799207 0.522419 2.62221 171 172 164
0.787364 0.524524 2.64341 173 171 171
0.775403 0.52663 2.66469 175 173 173
0.763327 0.528736 2.68606 169 174 170
0.748257 0.528809 2.69714 174 176 170
0.730368 0.526847 2.69781 181 182 174
0.712593 0.524885 2.69839 184 184 173
0.694936 0.522923 2.69888 182 182 171
0.677393 0.52096 2.69929 180 180 169
0.662555 0.521031 2.7102 178 177 169
0.647717 0.521103 2.72111 176 174 168
0.627935 0.517103 2.71068 183 182 179
0.61104 0.515341 2.71186 183 182 179
0.591893 0.511543 2.70221 184 185 177
0.572967 0.507744 2.69239 187 185 171
0.55426 0.503943 2.68242 187 185 166
0.537957 0.502179 2.68316 188 186 167
0.523669 0.502248 2.69367 186 182 168
0.511241 0.504151 2.71405 188 186 167
0.49891 0.506258 2.7356 189 185 166
0.482563 0.504289 2.73513 181 179 160
0.466519 0.502524 2.73569 180 173 148
0.447279 0.497088 2.71611 173 168 145
0.428528 0.491854 2.69743 167 155 138
0.411455 0.488251 2.6875 165 157 136
0.39625 0.486686 2.68869 171 162 144
0.383703 0.488384 2.70791 174 165 147
0.369827 0.488451 2.71811 184 177 159
0.355951 0.488518 2.72831 187 181 160
0.342075 0.488585 2.73851 186 181 156
0.325869 0.485182 2.7292 187 182 157
0.311041 0.483616 2.73011 186 180 166
0.296181 0.481845 2.72979 181 178 156
0.281544 0.480277 2.73056 179 173 152
0.267912 0.480343 2.74059 171 164 146
0.254279 0.480409 2.75061 172 164 143
0.240647 0.480474 2.76064 170 159 139
0.227014 0.48054 2.77066 170 160 138
0.21184 0.477132 2.76058 176 165 145
0.197626 0.475563 2.76104 183 174 156
0.182873 0.472357 2.75191 187 179 158
0.167717 0.467516 2.73308 191 183 167
0.154462 0.46758 2.74282 191 186 169
0.1417 0.46928 2.7622 190 180 158
0.128846 0.47098 2.78164 189 180 153
0.115898 0.472681 2.80115 190 185 160
0.102504 0.472745 2.811 190 185 160
0.0891092 0.47281 2.82085 190 185 160
0.0757142 0.472875 2.8307 190 185 160
0.0621039 0.471302 2.83072 190 185 160
0.0485856 0.469729 2.83066 190 185 160
0.035284 0.469794 2.84044 190 185 160
0.0220582 0.471496 2.86016 188 183 160
0.00871003 0.47156 2.86998 188 183 160
-0.00463887 0.471624 2.87979 188 183 160
-0.017862 0.468412 2.86953 188 183 160
-0.0309138 0.465403 2.86039 188 183 160
-0.0437718 0.462189 2.84986 188 183 160
-0.0566715 0.460818 2.8506 188 183 160
-0.069707 0.460881 2.86019 188 183 160
-0.0824483 0.459304 2.85957 187 181 160
-0.0951388 0.457932 2.86015 187 181 160
-0.107362 0.454919 2.85041 187 181 160
-0.11979 0.453341 2.84955 187 181 160
-0.132605 0.453403 2.85898 187 181 160
-0.14496 0.452029 2.85932 187 181 160
-0.157735 0.452091 2.86871 187 181 160
-0.170509 0.452152 2.8781 187 182 159
-0.183284 0.452214 2.8875 187 182 159
-0.194724 0.449198 2.87717 187 182 159
-0.206748 0.447822 2.87727 187 182 159
-0.218692 0.446446 2.87731 187 182 159
-0.230554 0.44507 2.87729 187 182 159
-0.24155 0.442256 2.86789 187 182 159
-0.251558 0.438004 2.84902 187 182 159
-0.262312 0.435394 2.84069 187 182 159
-0.273694 0.434016 2.84032 187 182 159
-0.285941 0.434075 2.84932 187 182 159
-0.300164 0.43701 2.87727 187 182 159
-0.313374 0.438303 2.89447 187 182 159
-0.326806 0.439801 2.91309 187 182 159
-0.339209 0.439861 2.92221 188 183 160
-0.352763 0.44136 2.94092 188 183 160
-0.367589 0.444298 2.96931 188 183 160
-0.383808 0.448677 3.00746 188 183 160
-0.39918 0.451823 3.0375 188 183 160
-0.410415 0.450239 3.03577 188 183 160
-0.421749 0.44886 3.03536 188 183 160
-0.430216 0.444601 3.01536 190 184 163
-0.434341 0.436225 2.96718 190 184 163
-0.439677 0.429493 2.92989 190 184 163
2.04164 0.335325 0.680322 68 77 88
2.04779 0.338062 0.693279 40 48 62
2.04337 0.339071 0.702773 43 50 61
2.03774 0.339889 0.711908 61 70 68
2.0229 0.33917 0.717826 71 83 85
2.01266 0.339219 0.725352 50 65 84
1.99676 0.338308 0.730803 29 61 93
1.99219 0.339318 0.740405 16 56 89
1.98644 0.340136 0.749625 16 56 89
1.98177 0.341147 0.759308 21 57 95
1.97703 0.342157 0.769032 19 57 90
1.98771 0.34586 0.784908 16 52 84
1.99926 0.349756 0.801386 19 58 87
2.00512 0.352691 0.815811 19 59 92
2.0108 0.355628 0.830363 21 60 91
2.04552 0.363759 0.857284 19 53 85
2.09373 0.374393 0.890511 23 45 63
2.13275 0.383491 0.920512 34 40 47
2.14036 0.387011 0.937397 41 48 52
2.14775 0.390532 0.954435 48 55 64
2.156 0.394246 0.9721 51 57 71
2.15773 0.396807 0.987054 53 59 66
2.15932 0.399368 1.00212 50 58 60
2.15351 0.400581 1.01388 41 56 57
2.14146 0.400639 1.02275 41 57 55
2.1294 0.400697 1.03161 33 47 42
2.11735 0.400756 1.04048 36 45 44
2.12553 0.404668 1.05943 24 29 25
2.16771 0.415134 1.09585 38 39 26
2.19024 0.421941 1.12299 63 61 35
2.2074 0.427785 1.14784 65 66 37
2.20146 0.429197 1.16094 70 72 48
2.18856 0.429259 1.17043 74 79 66
2.16881 0.427972 1.17621 59 65 64
2.14138 0.42514 1.17765 34 63 89
2.12184 0.423851 1.18327 16 56 89
2.11583 0.425264 1.19643 15 53 86
2.11737 0.42822 1.21403 23 58 92
2.12537 0.432528 1.23562 23 59 91
2.13406 0.437031 1.25795 20 52 84
2.12843 0.438638 1.27208 19 55 93
2.12178 0.440054 1.28571 21 62 98
2.11597 0.441662 1.29997 22 61 97
2.13214 0.447907 1.32804 13 40 73
2.15616 0.455892 1.36158 10 28 53
2.17334 0.462527 1.3914 18 43 67
2.18292 0.467618 1.41682 18 52 84
2.18503 0.471164 1.43775 17 56 87
2.19494 0.476451 1.46418 19 56 92
2.19746 0.480193 1.48605 21 60 91
2.20767 0.485676 1.51351 17 56 92
2.21755 0.491161 1.5412 22 59 95
2.2115 0.493166 1.55814 25 59 96
2.22257 0.49904 1.58747 23 58 92
2.22473 0.502982 1.61085 18 55 91
2.236 0.509052 1.64127 22 54 91
2.23848 0.51319 1.66567 21 55 87
2.24071 0.517328 1.69026 20 54 86
2.23438 0.519532 1.70865 22 56 88
2.23701 0.523866 1.73419 16 50 82
2.24841 0.530332 1.76701 20 49 80
2.26025 0.536993 1.80076 17 46 79
2.2725 0.543849 1.83546 11 43 73
2.30524 0.555743 1.88756 15 42 73
2.31892 0.563186 1.92495 25 52 83
2.33217 0.57063 1.96266 22 57 84
2.33554 0.575751 1.99265 21 56 83
2.35031 0.583781 2.03298 21 53 83
2.37545 0.594526 2.08318 16 48 80
2.41379 0.608765 2.14614 20 52 84
2.45281 0.623396 2.21111 24 56 88
2.47052 0.632794 2.25802 28 60 92
2.47565 0.639092 2.29421 34 61 92
2.45655 0.639184 2.30825 36 60 92
2.43745 0.639277 2.3223 89 110 126
2.44257 0.645772 2.35974 108 123 129
2.43566 0.649164 2.38605 111 126 132
2.42855 0.652558 2.4125 114 129 135
2.37252 0.642751 2.39002 117 131 139
2.33059 0.636631 2.38089 126 141 142
2.3003 0.633616 2.38318 129 144 145
2.28139 0.633707 2.39709 125 141 144
2.26248 0.633798 2.41099 127 142 143
2.24356 0.63389 2.4249 125 140 141
2.20283 0.627764 2.41489 127 141 144
2.16315 0.62183 2.40536 126 139 145
2.11445 0.613174 2.38498 127 140 146
2.06626 0.604515 2.36421 127 140 146
2.01992 0.596243 2.3446 129 143 146
1.98386 0.590884 2.33614 133 147 150
1.96625 0.590969 2.34909 135 145 147
1.95761 0.593777 2.37293 132 143 147
1.95834 0.599504 2.4086 133 144 143
1.94929 0.602314 2.43274 140 144 143
1.94008 0.605124 2.45699 149 147 147
1.9134 0.602487 2.45913 146 144 144
1.8777 0.596929 2.44916 148 145 142
1.84295 0.591565 2.43975 149 145 145
1.81692 0.588924 2.44141 149 148 145
1.79166 0.586478 2.44375 152 151 148
1.76595 0.583835 2.44517 151 149 149
1.74858 0.583919 2.45795 157 156 153
1.7312 0.584003 2.47072 162 161 158
1.71382 0.584087 2.4835 158 159 156
1.68909 0.581638 2.48545 161 161 155
1.67179 0.581721 2.49817 161 162 154
1.65449 0.581805 2.5109 162 163 155
1.62951 0.579159 2.51178 161 162 154
1.61229 0.579242 2.52444 168 169 161
1.58809 0.576791 2.526 167 170 162
1.56404 0.574338 2.52745 172 175 167
1.54014 0.571885 2.52879 171 174 166
1.5299 0.574503 2.55255 166 173 164
1.50615 0.572049 2.55378 165 172 163
1.48916 0.572131 2.56628 171 173 167
1.46563 0.569676 2.56734 169 175 168
1.44276 0.567415 2.56917 173 169 162
1.42591 0.567497 2.58156 161 156 146
1.39064 0.560159 2.56004 161 156 151
1.36827 0.557896 2.56151 151 144 139
1.34556 0.555437 2.56198 150 142 140
1.34076 0.5604 2.59672 147 139 137
1.32413 0.56048 2.60895 152 146 144
1.3075 0.56056 2.62118 157 152 147
1.28547 0.558295 2.62239 160 156 149
1.25248 0.551144 2.60045 160 154 147
1.22079 0.544382 2.58004 148 143 138
1.19946 0.542113 2.58074 137 135 129
1.17869 0.54004 2.58228 151 148 138
1.15763 0.537771 2.58278 155 150 140
1.13712 0.535697 2.58412 166 160 153
1.12125 0.535773 2.59579 162 156 149
1.10537 0.53585 2.60746 166 161 156
1.0895 0.535926 2.61914 164 163 160
1.07362 0.536003 2.63081 156 162 162
1.05775 0.53608 2.64248 154 163 162
1.04605 0.53831 2.66482 155 164 163
1.03012 0.538387 2.67654 152 162 164
1.00606 0.534156 2.66675 151 161 163
0.978272 0.52777 2.64598 141 152 151
0.947292 0.519423 2.61506 161 167 160
0.931921 0.519497 2.62636 177 177 166
0.912748 0.517416 2.62672 174 170 156
0.890304 0.513375 2.617 177 174 157
0.868438 0.509529 2.60811 181 177 165
0.846804 0.505682 2.59904 182 178 166
0.828626 0.503794 2.59992 181 178 161
0.810563 0.501905 2.60071 184 181 164
0.795725 0.501977 2.61162 174 175 167
0.783938 0.50401 2.63278 161 158 167
0.772034 0.506043 2.65402 162 159 168
0.75708 0.506115 2.66501 173 172 169
0.742126 0.506187 2.67601 180 179 171
0.727172 0.50626 2.687 183 184 171
0.712218 0.506332 2.698 182 183 168
0.694561 0.504441 2.69849 186 183 166
0.68231 0.506476 2.71999 182 181 164
0.66477 0.504585 2.7204 182 180 166
0.649874 0.504657 2.73135 184 182 168
0.632507 0.502765 2.73163 185 183 169
0.612844 0.498908 2.72112 172 168 156
0.596002 0.497211 2.72226 154 150 138
0.576968 0.493549 2.71253 170 166 154
0.558155 0.489885 2.70264 175 171 159
0.539561 0.486221 2.69259 180 171 158
0.525221 0.486291 2.70313 179 173 159
0.510881 0.48636 2.71367 176 169 151
0.496542 0.486429 2.72422 177 173 159
0.480448 0.484728 2.72481 177 173 154
0.464459 0.483027 2.72533 182 176 148
0.446924 0.479555 2.71575 187 182 159
0.429598 0.476082 2.70601 166 160 139
0.412652 0.472805 2.69724 177 172 149
0.39723 0.471102 2.69734 161 154 136
0.383355 0.471169 2.70755 171 159 142
0.369479 0.471236 2.71775 174 165 147
0.355603 0.471303 2.72795 171 164 141
0.341727 0.471369 2.73815 169 161 140
0.326756 0.469861 2.73917 181 175 154
0.310696 0.46658 2.72975 186 179 161
0.294835 0.463297 2.72019 185 183 159
0.280245 0.461787 2.72092 183 181 157
0.26757 0.463429 2.74023 188 181 156
0.254801 0.465071 2.75961 192 185 162
0.241122 0.465137 2.76967 189 184 167
0.228311 0.466977 2.79033 190 186 167
0.21458 0.467044 2.80042 190 185 168
0.199407 0.463758 2.79035 192 185 167
0.183168 0.457316 2.76109 194 186 170
0.168556 0.454225 2.75185 192 186 165
0.154669 0.452712 2.75207 195 187 171
0.141367 0.452776 2.76185 191 184 166
0.128064 0.45284 2.77163 189 182 159
0.115163 0.454483 2.79111 192 182 160
0.101814 0.454547 2.80092 192 182 160
0.0881584 0.453033 2.80098 192 182 160
0.0748558 0.453097 2.81076 192 182 160
0.061554 0.453161 2.82054 192 182 160
0.0482517 0.453225 2.83032 192 182 160
0.0351939 0.45645 2.8599 192 182 160
0.0217989 0.456514 2.86975 191 181 159
0.00840398 0.456579 2.8796 191 181 159
-0.00495645 0.453482 2.86944 191 181 159
-0.0181949 0.451965 2.86919 191 181 159
-0.0312439 0.449065 2.86005 191 181 159
-0.0444127 0.449128 2.86973 191 181 159
-0.0577589 0.450576 2.88829 191 181 159
-0.0709682 0.450639 2.898 194 184 162
-0.0836234 0.447737 2.88857 194 184 162
-0.0961046 0.444833 2.87902 194 184 162
-0.108024 0.440346 2.85906 194 184 162
-0.120546 0.439024 2.85953 194 184 162
-0.132927 0.437503 2.85864 194 184 162
-0.146269 0.439148 2.87844 194 184 162
-0.158557 0.437627 2.87749 191 181 159
-0.171992 0.439272 2.89736 191 181 159
-0.184854 0.439334 2.90681 191 181 159
-0.197003 0.437812 2.90576 191 181 159
-0.208489 0.435101 2.89672 191 181 159
-0.219713 0.432192 2.88624 191 181 159
-0.230869 0.42948 2.87696 191 181 159
-0.241077 0.425379 2.85825 190 180 158
-0.251868 0.422665 2.8487 190 180 158
-0.262621 0.420149 2.84037 190 180 158
-0.274001 0.418821 2.84 190 180 158
-0.287196 0.420267 2.85844 190 180 158
-0.300473 0.421714 2.87695 190 180 158
-0.313683 0.422964 2.89415 190 180 158
-0.328187 0.4258 2.9223 187 180 155
-0.341742 0.427249 2.941 187 180 155
-0.354226 0.427309 2.95018 187 180 155
-0.367903 0.428758 2.96898 187 180 155
-0.382893 0.431596 2.99749 187 180 155
-0.396773 0.433047 3.01643 187 180 155
-0.409419 0.433108 3.02573 187 180 155
-0.420713 0.431779 3.02529 192 183 156
-0.429136 0.42767 3.00526 192 183 156
-0.43465 0.420979 2.96686 192 183 156
-0.441245 0.415676 2.938 192 183 156
2.04138 0.322762 0.680058 64 77 83
2.04172 0.324474 0.691046 35 49 59
2.03733 0.325447 0.700518 41 49 63
2.03748 0.32716 0.711642 69 76 80
2.02264 0.32647 0.71756 76 82 81
2.00671 0.325595 0.723033 51 66 80
1.9965 0.325644 0.730538 29 62 96
1.99193 0.326618 0.740139 21 57 89
1.9817 0.326668 0.747665 21 55 92
1.98151 0.328382 0.75904 22 60 93
1.97677 0.329357 0.768764 21 56 99
1.98192 0.331998 0.782456 19 53 90
1.9935 0.33575 0.79891 23 57 94
1.99392 0.337652 0.811088 21 59 97
1.99966 0.34048 0.825595 23 61 94
2.03984 0.349234 0.854733 24 59 93
2.08807 0.359473 0.887931 27 48 64
2.13246 0.369159 0.920213 35 47 55
2.14645 0.373661 0.93989 38 50 60
2.14746 0.375941 0.954129 43 51 65
2.1557 0.379519 0.971792 55 62 73
2.15744 0.381985 0.986744 53 65 73
2.15173 0.383155 0.998426 69 76 80
2.15321 0.385623 1.01357 57 67 69
2.14836 0.386979 1.02587 47 56 55
2.14241 0.388151 1.03774 36 41 37
2.1374 0.389508 1.05016 38 40 34
2.15255 0.394575 1.07273 30 31 28
2.18148 0.402241 1.10265 40 43 28
2.20493 0.408982 1.13035 65 65 34
2.20707 0.411828 1.1475 74 71 36
2.20904 0.414674 1.16478 77 73 45
2.20298 0.416036 1.17798 81 86 66
2.17533 0.413314 1.17958 67 76 75
2.14106 0.409291 1.17732 38 62 84
2.1138 0.406566 1.17863 26 62 94
2.10111 0.406628 1.18796 17 55 88
2.10941 0.410776 1.20932 21 59 92
2.12504 0.416413 1.23528 20 55 89
2.13373 0.42075 1.25761 16 50 87
2.12061 0.420813 1.26726 23 62 93
2.12145 0.423665 1.28537 22 63 99
2.12304 0.426703 1.30417 26 66 99
2.14651 0.434206 1.33685 22 53 79
2.17134 0.442083 1.37103 35 49 57
2.19659 0.450148 1.40615 34 45 44
2.1988 0.453564 1.427 20 28 30
2.20887 0.458656 1.4533 14 23 27
2.21951 0.463936 1.48044 17 29 37
2.23867 0.471078 1.51379 12 31 45
2.24948 0.476547 1.54204 17 44 68
2.2521 0.480342 1.56509 23 53 81
2.24582 0.482277 1.58219 27 59 91
2.23942 0.484212 1.59938 22 60 93
2.24146 0.48801 1.62285 20 54 91
2.24412 0.491995 1.64711 22 54 91
2.23809 0.494118 1.66527 22 59 95
2.2311 0.496056 1.6829 18 55 91
2.22483 0.498181 1.70124 22 55 89
2.22752 0.502356 1.72673 21 55 87
2.22996 0.506533 1.75241 23 55 87
2.23214 0.510711 1.77827 20 52 84
2.24377 0.517129 1.81216 18 49 83
2.26546 0.525972 1.85489 21 48 81
2.28819 0.535192 1.89935 19 47 75
2.31115 0.544601 1.94489 16 41 70
2.32489 0.55196 1.98348 14 39 68
2.36001 0.564547 2.0413 7 35 63
2.375 0.572471 2.08272 22 51 84
2.39028 0.580584 2.12517 24 56 88
2.39513 0.586272 2.15905 24 56 88
2.39964 0.591962 2.19319 21 53 85
2.4038 0.597654 2.22758 26 53 84
2.39644 0.600546 2.25173 27 54 87
2.38964 0.603624 2.2767 30 59 92
2.40613 0.612684 2.3245 77 92 111
2.41042 0.618756 2.3613 110 124 134
2.39123 0.618848 2.37541 113 125 133
2.36058 0.61595 2.37797 120 133 139
2.31874 0.610059 2.36878 129 143 146
2.29983 0.610151 2.38269 129 141 143
2.2921 0.613234 2.40835 131 143 145
2.262 0.610333 2.4105 128 140 142
2.24309 0.610425 2.42441 125 140 141
2.20236 0.604528 2.4144 128 140 142
2.14241 0.593204 2.38233 127 141 144
2.08384 0.582063 2.35049 129 143 146
2.02795 0.571481 2.32042 130 139 143
1.99182 0.566324 2.31203 135 145 147
1.97428 0.566409 2.32492 133 144 143
1.95675 0.566493 2.33782 136 147 146
1.95716 0.571822 2.37247 132 145 144
1.94836 0.57453 2.39642 132 144 146
1.94884 0.580049 2.43227 134 144 146
1.9309 0.580136 2.44547 147 147 148
1.9043 0.577599 2.44754 146 147 144
1.86869 0.57225 2.43752 164 163 160
1.8425 0.56971 2.4393 158 163 159
1.82489 0.569795 2.45225 161 167 160
1.80728 0.56988 2.4652 162 168 161
1.78142 0.56734 2.46673 162 169 160
1.7563 0.564986 2.46897 163 170 161
1.73076 0.562444 2.47027 163 170 161
1.71339 0.562528 2.48305 163 171 159
1.69601 0.562611 2.49582 165 172 163
1.67863 0.562695 2.5086 166 173 164
1.65405 0.560339 2.51045 161 168 159
1.62907 0.557794 2.51133 163 163 157
1.61185 0.557877 2.52399 167 169 163
1.58766 0.555519 2.52556 168 170 164
1.56361 0.55316 2.52701 169 175 168
1.54654 0.553242 2.53956 172 178 171
1.52272 0.550882 2.54084 166 172 165
1.50572 0.550964 2.55334 158 164 157
1.48873 0.551046 2.56584 162 163 155
1.47174 0.551128 2.57833 151 150 142
1.45474 0.55121 2.59083 175 171 164
1.43137 0.548848 2.59178 174 175 167
1.40234 0.544228 2.58192 165 164 156
1.3736 0.539607 2.57184 148 142 140
1.36264 0.541945 2.59487 141 134 129
1.35202 0.544471 2.61892 148 140 138
1.33524 0.544552 2.63125 156 151 146
1.31255 0.542187 2.63171 158 154 147
1.28505 0.53775 2.62196 158 154 147
1.24674 0.528606 2.58896 150 144 137
1.21513 0.522094 2.56851 146 140 133
1.1943 0.520101 2.57009 150 142 135
1.17317 0.517918 2.57064 153 151 137
1.1526 0.515923 2.57203 160 158 144
1.13673 0.516 2.58371 161 157 150
1.12085 0.516076 2.59538 161 157 145
1.10054 0.51408 2.59658 170 166 154
1.08035 0.512083 2.59769 164 164 158
1.0646 0.512159 2.60927 155 164 162
1.04885 0.512235 2.62085 155 166 164
1.03311 0.512311 2.63243 155 164 162
1.01736 0.512387 2.64401 154 167 166
0.997556 0.510389 2.64484 155 166 165
0.973889 0.506314 2.63477 148 154 153
0.946906 0.500352 2.61466 161 165 154
0.927671 0.49835 2.61507 179 177 163
0.908909 0.496537 2.61638 173 170 153
0.88313 0.490759 2.59664 176 173 156
0.858044 0.485169 2.57763 181 178 161
0.839867 0.483352 2.57851 182 179 162
0.825029 0.483424 2.58942 179 177 163
0.810191 0.483496 2.60033 177 177 158
0.795353 0.483567 2.61124 180 177 160
0.783564 0.485528 2.63239 171 170 153
0.771659 0.48749 2.65363 171 169 155
0.756705 0.487562 2.66462 163 161 147
0.738876 0.485744 2.66525 163 159 145
0.72398 0.485816 2.6762 160 154 140
0.709084 0.485888 2.68715 181 177 163
0.694188 0.48596 2.69811 183 179 165
0.679292 0.486031 2.70906 183 179 165
0.664396 0.486103 2.72001 184 182 168
0.646972 0.484284 2.72034 184 182 170
0.632135 0.484355 2.73125 188 185 175
0.614885 0.482534 2.73145 182 178 164
0.600106 0.482606 2.74232 182 178 164
0.58303 0.480784 2.74239 184 180 166
0.564057 0.477259 2.73262 184 182 168
0.543342 0.472027 2.71289 186 185 168
0.526983 0.470393 2.71368 186 184 172
0.512586 0.470463 2.72427 182 183 170
0.496182 0.468638 2.72385 187 186 169
0.480089 0.467002 2.72444 183 181 162
0.464102 0.465366 2.72496 186 179 161
0.448218 0.463729 2.7254 189 180 162
0.430842 0.460385 2.71571 190 182 166
0.416763 0.460454 2.72606 187 180 162
0.402684 0.460521 2.73641 188 182 161
0.387166 0.458883 2.73659 179 171 150
0.37314 0.45895 2.7469 166 159 136
0.357926 0.457501 2.7481 161 156 133
0.342662 0.455861 2.74809 168 160 139
0.327503 0.454221 2.748 167 159 138
0.3114 0.451061 2.73861 175 165 141
0.296621 0.44961 2.73949 172 164 143
0.281816 0.447968 2.73914 184 172 155
0.269159 0.449742 2.75968 192 182 158
0.255428 0.449809 2.76978 194 187 164
0.242513 0.451394 2.78926 192 185 160
0.228736 0.451461 2.79939 194 186 165
0.214235 0.450008 2.80007 192 184 168
0.199066 0.446844 2.79 194 185 172
0.183462 0.44216 2.77026 194 187 169
0.168806 0.439184 2.76106 197 191 170
0.154335 0.436208 2.75173 195 187 166
0.141033 0.436272 2.76151 194 187 164
0.12773 0.436336 2.77129 191 182 155
0.114429 0.4364 2.78107 189 180 153
0.101127 0.436464 2.79085 189 180 153
0.0878249 0.436529 2.80063 189 180 153
0.0742629 0.435071 2.80061 189 180 153
0.0612203 0.436657 2.82019 189 180 153
0.0479181 0.436721 2.82997 189 180 153
0.0347368 0.438308 2.84965 190 181 154
0.0213885 0.438373 2.85947 190 181 154
0.00798375 0.435391 2.84935 190 181 154
-0.00525306 0.433932 2.84909 190 181 154
-0.0183404 0.431139 2.83999 190 181 154
-0.0314632 0.431202 2.84964 190 181 154
-0.044743 0.43279 2.86939 190 181 154
-0.0582943 0.435711 2.89808 190 181 154
-0.0718002 0.437299 2.918 188 181 156
-0.0845089 0.434314 2.90737 188 181 156
-0.0967325 0.429994 2.88764 188 181 156
-0.108737 0.425864 2.869 188 181 156
-0.12125 0.424401 2.86822 188 181 156
-0.134152 0.424463 2.8777 188 181 156
-0.147054 0.424525 2.88719 188 181 156
-0.160532 0.426114 2.90709 187 180 157
-0.174645 0.429038 2.93619 187 180 157
-0.188264 0.430436 2.95494 187 180 157
-0.200716 0.429164 2.95536 187 180 157
-0.212325 0.426364 2.94517 187 180 157
-0.221543 0.419364 2.90575 187 180 157
-0.231931 0.415225 2.88593 187 180 157
-0.24139 0.40994 2.85792 187 180 157
-0.251469 0.406181 2.84037 187 180 157
-0.262061 0.403566 2.83068 187 180 157
-0.2734 0.402288 2.83027 187 180 157
-0.285606 0.402347 2.83925 187 180 157
-0.299792 0.405081 2.86716 187 180 157
-0.313994 0.407625 2.89383 187 180 157
-0.328499 0.41036 2.92197 190 183 160
-0.343167 0.413097 2.95024 190 183 160
-0.355691 0.413157 2.95945 190 183 160
-0.368218 0.413217 2.96866 190 183 160
-0.37951 0.411939 2.96822 190 183 160
-0.391995 0.412 2.9774 190 183 160
-0.403164 0.410721 2.97687 190 183 160
-0.415609 0.410781 2.98602 189 179 157
-0.426657 0.409501 2.98541 189 179 157
-0.434958 0.405734 2.96654 189 179 157
-0.443026 0.401965 2.94751 189 179 157
2.04113 0.310199 0.679795 68 82 92
2.04147 0.311846 0.690781 46 54 76
2.03707 0.312783 0.700253 42 51 69
2.03262 0.313721 0.709768 72 76 81
2.01666 0.312882 0.715263 77 80 83
2.00076 0.312043 0.720716 54 71 85
1.99058 0.312092 0.7282 38 64 99
1.99168 0.313918 0.739873 25 59 96
1.98593 0.314679 0.749092 18 51 90
1.98125 0.315618 0.758773 17 57 90
1.98096 0.317268 0.770223 23 56 95
1.98166 0.319096 0.782186 17 53 85
1.98775 0.321815 0.796436 23 57 87
1.99366 0.324535 0.810813 27 60 94
1.99939 0.327255 0.825318 26 59 93
2.03307 0.334604 0.85173 22 55 89
2.08134 0.344447 0.884895 27 49 76
2.12575 0.353759 0.917143 35 44 55
2.14616 0.359156 0.939586 41 48 57
2.14716 0.36135 0.953824 46 53 64
2.1554 0.364791 0.971484 56 66 81
2.14981 0.365917 0.983084 64 70 84
2.15144 0.368291 0.998115 72 80 82
2.15291 0.370665 1.01326 60 71 75
2.15423 0.373041 1.02851 49 63 66
2.15541 0.375417 1.04387 42 56 51
2.16457 0.379219 1.06335 36 43 39
2.17956 0.384094 1.08602 28 32 31
2.20229 0.390396 1.113 46 43 33
2.21161 0.394381 1.13361 73 69 36
2.21371 0.397119 1.15079 83 78 48
2.20872 0.398609 1.16444 82 77 47
2.20265 0.399921 1.17764 85 88 68
2.17501 0.397306 1.17925 72 79 70
2.14073 0.393441 1.17698 44 68 81
2.1212 0.392253 1.18261 30 66 98
2.10847 0.392314 1.19197 16 56 89
2.10909 0.394876 1.20899 23 57 89
2.11808 0.399047 1.23109 25 52 85
2.12586 0.403039 1.25283 20 49 82
2.12028 0.404532 1.26692 25 61 91
2.12112 0.407276 1.28502 26 64 97
2.12271 0.410199 1.30383 29 67 100
2.1618 0.420453 1.34623 26 62 87
2.18652 0.428028 1.38048 51 67 70
2.21258 0.435963 1.41624 61 70 69
2.22279 0.44086 1.44243 48 58 60
2.24166 0.447548 1.47474 36 46 48
2.25297 0.452806 1.50262 31 40 39
2.27279 0.459855 1.53673 29 38 36
2.28425 0.465296 1.56575 34 38 37
2.27791 0.467159 1.58289 32 41 39
2.27145 0.469022 1.60012 31 41 36
2.27435 0.472855 1.6242 25 34 43
2.25904 0.472929 1.63546 17 32 46
2.25308 0.474973 1.65357 16 38 56
2.23771 0.475047 1.66488 17 52 86
2.23072 0.476913 1.6825 20 54 91
2.22444 0.478958 1.70084 19 56 92
2.21804 0.481005 1.71928 21 54 88
2.22053 0.485023 1.7449 22 55 89
2.23174 0.491014 1.77786 19 53 85
2.24337 0.497187 1.81174 19 53 85
2.26505 0.505693 1.85447 21 52 86
2.28778 0.51456 1.89892 23 52 85
2.31073 0.523609 1.94445 21 48 79
2.34567 0.535532 2.00114 24 51 84
2.38141 0.547817 2.05974 21 48 81
2.38617 0.553107 2.09244 20 47 80
2.37907 0.555706 2.11514 24 48 82
2.3718 0.558306 2.13796 10 33 62
2.35377 0.558393 2.15121 0 25 56
2.36954 0.566561 2.19578 22 55 89
2.37361 0.572037 2.23024 38 66 94
2.38917 0.58039 2.27622 77 98 114
2.38218 0.583354 2.30133 92 109 116
2.38665 0.589195 2.33798 102 116 124
2.36764 0.589287 2.35196 110 123 129
2.33718 0.586503 2.35439 122 136 139
2.3069 0.583718 2.35668 129 143 146
2.29935 0.586685 2.3822 131 143 145
2.28044 0.586777 2.3961 133 146 145
2.26153 0.586868 2.41001 131 143 145
2.23162 0.584081 2.41203 127 141 144
2.19099 0.578415 2.40196 127 141 144
2.14195 0.570408 2.38185 129 144 145
2.074 0.557179 2.33944 133 144 148
2.0275 0.549526 2.31996 133 144 148
2.00059 0.547091 2.32227 134 146 148
1.98298 0.547176 2.33523 131 143 145
1.97442 0.549782 2.359 133 145 147
1.97531 0.55509 2.39454 134 146 148
1.95744 0.555177 2.40767 133 145 147
1.93958 0.555263 2.42081 136 144 146
1.91236 0.552646 2.4221 149 148 145
1.88594 0.550209 2.42405 148 147 144
1.85968 0.547771 2.42589 158 160 154
1.84206 0.547856 2.43884 161 164 156
1.82445 0.547941 2.45179 165 167 161
1.79851 0.545501 2.45339 166 169 161
1.78098 0.545586 2.46628 166 169 161
1.75586 0.543326 2.46852 165 172 163
1.73033 0.540884 2.46982 163 170 161
1.71295 0.540968 2.4826 165 172 163
1.69557 0.541052 2.49537 169 177 165
1.6782 0.541136 2.50815 164 172 160
1.65362 0.538873 2.51 165 169 158
1.63632 0.538957 2.52272 162 162 156
1.61902 0.53904 2.53544 166 168 162
1.5942 0.536595 2.53621 168 174 167
1.57008 0.53433 2.53772 168 172 171
1.54611 0.532064 2.53912 163 167 166
1.52229 0.529797 2.5404 164 168 167
1.5053 0.529879 2.5529 169 171 165
1.4883 0.529961 2.56539 166 166 160
1.47131 0.530043 2.57789 174 175 167
1.46076 0.532476 2.60187 176 177 169
1.43732 0.530207 2.60288 176 177 169
1.40822 0.525768 2.59308 166 162 155
1.38514 0.523498 2.59381 152 143 138
1.36837 0.523579 2.60615 148 141 136
1.35767 0.526012 2.63024 152 144 142
1.33482 0.523741 2.63081 159 152 147
1.30666 0.519297 2.62031 161 156 146
1.2734 0.512679 2.59859 154 149 139
1.23612 0.504248 2.56733 146 141 131
1.2099 0.500161 2.5579 149 147 135
1.18871 0.498065 2.55851 157 155 143
1.17277 0.498142 2.57023 158 156 144
1.1522 0.496226 2.57162 163 161 147
1.13633 0.496303 2.58329 169 164 154
1.11595 0.494386 2.58455 169 165 153
1.0957 0.492468 2.5857 168 164 152
1.07558 0.49055 2.58677 165 167 161
1.05559 0.488632 2.58774 162 166 165
1.03997 0.488707 2.59922 160 166 166
1.02435 0.488782 2.61071 157 166 165
1.01285 0.490853 2.6329 155 166 164
0.993109 0.488933 2.63368 155 166 164
0.973498 0.487013 2.63437 146 155 153
0.946521 0.481281 2.61426 163 165 154
0.931149 0.481355 2.62556 179 180 165
0.908526 0.477617 2.61599 177 173 154
0.882752 0.472062 2.59624 177 175 156
0.854333 0.464871 2.56721 180 176 162
0.839495 0.464943 2.57812 179 176 159
0.824657 0.465014 2.58903 177 172 155
0.812982 0.466903 2.6101 171 163 147
0.798086 0.466975 2.62105 167 162 145
0.78319 0.467046 2.632 165 163 139
0.771284 0.468936 2.65324 157 156 139
0.753398 0.46719 2.65391 172 168 154
0.738502 0.467262 2.66486 182 180 161
0.720791 0.465516 2.6654 182 181 159
0.705952 0.465587 2.67631 181 176 166
0.691115 0.465659 2.68722 183 178 161
0.676276 0.465731 2.69813 186 182 163
0.661438 0.465802 2.70904 187 184 167
0.646601 0.465874 2.71995 186 184 170
0.629295 0.464125 2.7202 187 183 169
0.616925 0.466017 2.74177 178 177 160
0.602086 0.466089 2.75268 178 177 160
0.584954 0.464339 2.7528 172 170 156
0.565925 0.46095 2.74307 171 170 153
0.547118 0.457561 2.73319 179 177 163
0.530438 0.455809 2.73297 187 185 171
0.51408 0.454239 2.73376 180 178 164
0.497827 0.452669 2.73448 187 184 167
0.481483 0.450916 2.73402 188 184 170
0.463744 0.447704 2.72459 183 175 159
0.447862 0.446132 2.72504 165 156 138
0.432084 0.444559 2.7254 181 176 153
0.417953 0.444627 2.73579 186 182 163
0.403822 0.444695 2.74618 186 181 164
0.389692 0.444764 2.75657 190 185 168
0.374174 0.44319 2.75675 191 186 169
0.357575 0.440155 2.74774 190 186 167
0.341031 0.436937 2.73743 191 187 168
0.324832 0.433901 2.72812 191 187 168
0.311054 0.433968 2.73825 190 183 165
0.297277 0.434034 2.74838 191 185 164
0.2835 0.434101 2.75851 193 186 168
0.269722 0.434167 2.76865 193 182 171
0.255945 0.434234 2.77878 191 184 166
0.241352 0.432839 2.77952 193 186 168
0.227622 0.432905 2.78962 194 187 169
0.212356 0.429864 2.77962 194 189 166
0.197287 0.426823 2.76948 197 191 170
0.181235 0.421038 2.74134 197 188 170
0.16672 0.418177 2.73204 193 186 168
0.152927 0.416778 2.7322 196 187 169
0.140209 0.418305 2.75154 194 186 165
0.127397 0.419832 2.77094 192 182 158
0.114095 0.419896 2.78072 188 178 156
0.100793 0.41996 2.7905 188 178 156
0.0871859 0.418561 2.79052 188 178 156
0.0739299 0.418625 2.80027 188 178 156
0.0608866 0.420153 2.81985 188 178 156
0.0475846 0.420217 2.82963 188 178 156
0.0342826 0.420282 2.83941 190 180 158
0.0209072 0.418881 2.83926 190 180 158
0.00760175 0.416197 2.83032 190 180 158
-0.00554772 0.414795 2.83 190 180 158
-0.0186041 0.413392 2.82961 190 180 158
-0.0317926 0.414921 2.8493 190 180 158
-0.0452123 0.417734 2.87789 190 180 158
-0.0588317 0.420731 2.90787 187 175 153
-0.0721337 0.420795 2.91765 187 175 153
-0.0848408 0.417925 2.90703 187 175 153
-0.0970606 0.413771 2.8873 187 175 153
-0.109062 0.409798 2.86867 187 175 153
-0.121574 0.408393 2.86788 187 175 153
-0.134476 0.408455 2.87737 187 175 153
-0.146915 0.407233 2.87778 187 177 155
-0.160856 0.410048 2.90675 187 177 155
-0.175516 0.41415 2.94499 187 177 155
-0.18993 0.41715 2.97556 187 177 155
-0.203724 0.418499 2.99444 187 177 155
-0.215506 0.415808 2.98438 187 177 155
-0.224791 0.408891 2.94377 187 177 155
-0.234597 0.403626 2.91479 185 175 153
-0.24249 0.395786 2.86692 185 175 153
-0.252488 0.391987 2.84806 185 175 153
-0.261499 0.387084 2.82098 185 175 153
-0.272926 0.38604 2.82189 185 175 153
-0.284147 0.384812 2.82141 185 175 153
-0.298119 0.387261 2.84791 185 175 153
-0.31342 0.391182 2.88537 187 177 153
-0.328811 0.394921 2.92165 187 177 153
-0.343481 0.397556 2.94991 187 177 153
-0.356006 0.397617 2.95912 187 177 153
-0.367337 0.396389 2.95872 187 177 153
-0.378588 0.395161 2.95825 187 177 153
-0.388482 0.392644 2.94805 187 177 153
-0.399718 0.391599 2.94882 188 179 152
-0.41069 0.39037 2.94815 188 179 152
-0.421581 0.38914 2.94742 188 179 152
-0.431159 0.386804 2.93824 188 179 152
-0.441854 0.385573 2.93737 188 179 152
2.04088 0.297636 0.679533 68 82 85
2.04121 0.299218 0.690517 45 62 71
2.03103 0.299267 0.698001 37 51 68
2.02086 0.299317 0.705484 76 79 82
2.01068 0.299366 0.712968 83 88 84
1.99594 0.298733 0.71881 58 75 89
1.99032 0.299464 0.727935 32 65 92
1.99142 0.301219 0.739607 20 59 95
1.99128 0.302803 0.750941 14 53 89
1.98657 0.303706 0.760642 16 54 87
1.98625 0.305292 0.772112 17 54 90
1.99245 0.307902 0.786275 22 53 87
2.00396 0.311367 0.802765 18 49 88
2.00978 0.313979 0.817204 23 57 94
2.01543 0.316592 0.831771 17 51 88
2.03929 0.322109 0.854165 25 61 93
2.0746 0.329507 0.881861 32 52 77
2.11263 0.33742 0.911307 37 45 59
2.1331 0.342601 0.933695 44 51 62
2.14052 0.345733 0.950699 47 54 70
2.1551 0.350063 0.971175 57 67 87
2.14951 0.351146 0.982774 64 74 94
2.15113 0.353426 0.997803 69 78 89
2.15261 0.355707 1.01294 60 71 75
2.16113 0.359187 1.03163 46 61 67
2.17659 0.363864 1.05396 39 49 51
2.18461 0.367346 1.07302 39 49 44
2.19342 0.370999 1.09276 31 36 32
2.21002 0.376023 1.11674 37 41 30
2.21129 0.378481 1.13328 70 68 35
2.21339 0.381111 1.15045 83 80 45
2.20839 0.382544 1.16411 86 80 52
2.20233 0.383805 1.1773 86 90 72
2.17468 0.381298 1.17891 81 85 74
2.14721 0.378791 1.18039 47 70 86
2.12764 0.377653 1.18605 34 66 96
2.12158 0.378915 1.19924 18 60 93
2.12307 0.381547 1.21686 32 63 89
2.12439 0.384181 1.23461 38 65 82
2.12553 0.386816 1.25249 27 55 83
2.11995 0.388251 1.26658 40 66 93
2.12079 0.390887 1.28468 26 66 92
2.12977 0.395068 1.30802 25 67 100
2.1688 0.404912 1.35046 30 62 92
2.19439 0.412357 1.3853 54 68 76
2.22039 0.419976 1.4211 71 82 81
2.23055 0.424679 1.44732 62 78 76
2.25831 0.432817 1.48556 49 66 67
2.27841 0.439585 1.51945 42 53 51
2.2901 0.444808 1.5483 36 43 34
2.30144 0.450034 1.5774 41 51 39
2.29585 0.451997 1.59523 41 49 37
2.28927 0.453789 1.61255 35 41 34
2.28344 0.455753 1.63057 34 41 32
2.26806 0.455828 1.64187 39 42 34
2.24335 0.454011 1.64632 34 40 39
2.22804 0.454084 1.65757 30 50 68
2.22195 0.45605 1.67578 25 55 92
2.2149 0.457844 1.69344 25 60 94
2.20856 0.459811 1.71183 20 55 89
2.22014 0.465563 1.7445 23 56 90
2.2403 0.47321 1.78458 19 48 79
2.26238 0.481376 1.827 15 44 75
2.28391 0.489545 1.86982 20 52 84
2.29693 0.495994 1.90643 18 53 87
2.32059 0.504856 1.95267 19 52 86
2.34524 0.514066 2.00069 20 53 87
2.37005 0.523451 2.04984 21 50 89
2.37411 0.528359 2.08179 21 51 88
2.35633 0.528445 2.09486 21 51 88
2.33856 0.528531 2.10793 21 52 86
2.33213 0.531202 2.13138 27 56 89
2.34656 0.538701 2.17443 32 61 94
2.36197 0.546547 2.21925 32 60 88
2.3887 0.557154 2.27573 54 75 91
2.39344 0.562764 2.31218 63 85 98
2.38617 0.565615 2.33749 81 99 111
2.35562 0.562946 2.33999 102 117 123
2.3367 0.563038 2.35389 121 138 139
2.30643 0.560368 2.35619 127 143 141
2.29888 0.56322 2.38171 132 145 144
2.27997 0.563312 2.39561 134 145 144
2.26105 0.563403 2.40952 134 145 144
2.23115 0.560731 2.41154 133 142 146
2.1803 0.552704 2.39027 129 143 146
2.13136 0.54502 2.3701 132 144 146
2.08293 0.537333 2.34955 135 147 149
2.04631 0.532582 2.34154 134 147 146
2.01858 0.530076 2.34321 137 148 147
2.0008 0.530162 2.35628 134 146 148
1.99272 0.532841 2.38094 133 145 147
1.97486 0.532927 2.39407 137 147 149
1.957 0.533013 2.40721 133 143 145
1.92969 0.530505 2.40856 136 145 144
1.90319 0.528168 2.41058 146 146 146
1.87685 0.525832 2.41248 148 148 142
1.85923 0.525917 2.42543 157 155 149
1.84162 0.526002 2.43838 160 160 154
1.82401 0.526087 2.45133 159 159 153
1.79807 0.523748 2.45293 157 160 152
1.78054 0.523833 2.46582 161 165 154
1.75543 0.521666 2.46806 165 169 158
1.73797 0.52175 2.4809 167 171 160
1.72051 0.521834 2.49374 165 173 161
1.70305 0.521918 2.50657 166 174 162
1.67776 0.519576 2.5077 166 173 164
1.66038 0.51966 2.52048 167 170 162
1.64301 0.519744 2.53325 164 163 155
1.61858 0.517574 2.53499 169 171 165
1.59377 0.51523 2.53576 173 175 169
1.56965 0.513058 2.53727 175 176 168
1.54568 0.510886 2.53867 174 177 169
1.52187 0.508712 2.53996 172 175 167
1.4982 0.506539 2.54114 169 172 164
1.48128 0.50662 2.55358 167 170 162
1.46436 0.506702 2.56602 168 171 163
1.44744 0.506783 2.57846 170 171 163
1.42464 0.504781 2.58025 176 177 169
1.4015 0.502605 2.58104 166 167 159
1.38472 0.502686 2.59338 152 144 142
1.3618 0.500509 2.59401 157 149 147
1.34511 0.500589 2.60628 165 158 153
1.32288 0.498584 2.60766 163 157 150
1.29486 0.494319 2.59705 165 160 150
1.2622 0.488141 2.57615 164 161 151
1.23572 0.48422 2.56691 165 165 154
1.21432 0.482212 2.56767 167 165 153
1.19349 0.480376 2.56926 166 164 152
1.17237 0.478366 2.56982 163 161 147
1.1518 0.476529 2.57121 157 156 139
1.14049 0.47852 2.59325 148 144 130
1.12005 0.476682 2.59455 151 149 137
1.09974 0.474844 2.59576 165 163 151
1.07519 0.471091 2.58636 162 161 158
1.0552 0.469251 2.58733 155 163 165
1.03958 0.469326 2.59882 156 166 168
1.02396 0.469402 2.6103 157 168 167
1.01245 0.471393 2.63249 158 167 165
0.992717 0.469553 2.63327 155 166 164
0.973108 0.467711 2.63396 145 156 154
0.953627 0.465869 2.63456 164 165 157
0.934273 0.464027 2.63506 182 177 167
0.908144 0.458696 2.61559 177 173 154
0.882374 0.453365 2.59585 179 178 156
0.85396 0.446461 2.56683 183 179 165
0.835845 0.444789 2.56767 182 177 160
0.821065 0.44486 2.57853 172 170 151
0.812608 0.448421 2.60971 165 162 145
0.797713 0.448493 2.62066 164 162 148
0.782816 0.448565 2.63162 161 158 141
0.770909 0.450382 2.65285 160 156 142
0.753024 0.448709 2.65352 168 164 152
0.738128 0.448781 2.66447 183 177 163
0.726047 0.450599 2.68584 183 177 163
0.711093 0.450671 2.69683 185 179 165
0.701535 0.454238 2.72882 185 179 165
0.683825 0.452563 2.72936 185 179 165
0.663649 0.44914 2.71924 181 173 157
0.646228 0.447464 2.71957 161 152 139
0.628924 0.445788 2.71981 153 150 128
0.614144 0.445859 2.73068 155 147 131
0.601714 0.447679 2.7523 145 132 117
0.584584 0.446002 2.75242 125 113 91
0.565558 0.442749 2.74269 140 138 114
0.546753 0.439496 2.73281 178 174 155
0.532193 0.439566 2.74352 189 185 171
0.515572 0.437886 2.74326 193 189 177
0.499268 0.436381 2.74401 194 190 178
0.481123 0.433124 2.73364 193 189 175
0.465085 0.431618 2.7342 190 186 172
0.447506 0.428534 2.72467 195 190 173
0.433323 0.428603 2.7351 193 185 169
0.41914 0.428671 2.74552 194 186 170
0.406447 0.430317 2.76609 190 184 170
0.390774 0.428808 2.76638 194 186 170
0.375206 0.427299 2.7666 193 186 168
0.357224 0.42281 2.74737 191 184 166
0.339544 0.418319 2.72793 192 185 167
0.322165 0.413827 2.70826 188 181 163
0.309663 0.415471 2.72868 187 181 160
0.296931 0.416941 2.74803 181 173 157
0.285179 0.41999 2.77788 187 176 156
0.271303 0.420057 2.78809 194 185 167
0.256567 0.41872 2.78894 192 187 164
0.241822 0.417207 2.78855 191 185 164
0.226414 0.414289 2.77866 194 189 166
0.210481 0.409966 2.75918 192 186 165
0.194923 0.405817 2.74067 201 191 167
0.179643 0.401666 2.72195 196 188 167
0.165296 0.399095 2.71378 197 192 169
0.151591 0.397753 2.71388 192 184 163
0.139387 0.400452 2.74157 190 183 160
0.127063 0.403328 2.7706 190 180 158
0.114554 0.406205 2.79976 191 180 160
0.100809 0.404863 2.79988 191 180 160
0.0871568 0.403521 2.79994 191 180 160
0.0738554 0.403585 2.80972 191 180 160
0.0603418 0.402242 2.80967 191 180 160
0.0470862 0.402306 2.81942 189 178 158
0.0337121 0.400963 2.81927 189 178 158
0.0204397 0.399795 2.82029 189 178 158
0.00724541 0.39845 2.82001 189 178 158
-0.00587685 0.398514 2.82966 189 178 158
-0.0189994 0.398577 2.83931 189 178 158
-0.0323348 0.401281 2.86783 189 178 158
-0.045704 0.402754 2.88765 189 178 158
-0.0591659 0.404227 2.90753 190 179 159
-0.0719626 0.401473 2.89697 190 179 159
-0.0846112 0.398894 2.88755 190 179 159
-0.0967409 0.394904 2.86777 190 179 159
-0.108995 0.392323 2.85806 190 179 159
-0.121514 0.391151 2.85853 190 179 159
-0.134375 0.391213 2.86798 190 179 159
-0.147237 0.391276 2.87744 188 178 156
-0.160604 0.392572 2.89601 188 178 156
-0.174675 0.39528 2.92507 188 178 156
-0.18959 0.3994 2.96474 188 178 156
-0.202713 0.399464 2.97439 188 178 156
-0.214405 0.39688 2.96427 188 178 156
-0.225115 0.392884 2.94344 188 178 156
-0.235664 0.389062 2.92374 190 177 157
-0.24517 0.384004 2.89454 190 177 157
-0.255288 0.380357 2.87577 190 177 157
-0.263546 0.374412 2.83941 190 177 157
-0.273232 0.370939 2.82158 190 177 157
-0.283636 0.368701 2.81301 190 177 157
-0.296583 0.369819 2.83001 190 177 157
-0.312697 0.374649 2.87556 189 179 157
-0.329123 0.379481 2.92133 189 179 157
-0.343795 0.382016 2.94959 189 179 157
-0.35632 0.382076 2.9588 189 179 157
-0.368846 0.382137 2.96801 189 179 157
-0.3789 0.379721 2.95793 189 179 157
-0.388793 0.377305 2.94773 189 179 157
-0.397394 0.373826 2.9291 192 180 158
-0.405764 0.370346 2.91029 192 180 158
-0.4153 0.368104 2.90108 192 180 158
-0.424685 0.365862 2.89176 192 180 158
-0.436665 0.365919 2.90057 192 180 158
2.03478 0.284257 0.677325 67 82 88
2.03631 0.285938 0.68868 44 57 70
2.03078 0.286639 0.697736 39 51 66
2.0206 0.286689 0.70522 72 76 81
2.00584 0.286085 0.71108 92 100 93
1.99569 0.286134 0.718547 75 88 94
1.99007 0.286836 0.727671 40 71 92
1.99116 0.288519 0.739341 17 54 90
1.99663 0.290856 0.752788 14 48 80
1.99636 0.292377 0.764219 13 49 81
1.99154 0.293244 0.774 13 50 91
2.00323 0.296564 0.79036 16 51 85
2.02018 0.300703 0.80909 24 53 84
2.03137 0.304025 0.825812 25 59 91
2.03799 0.306694 0.84091 17 56 87
2.04442 0.309364 0.856145 20 54 86
2.06894 0.314817 0.879285 23 49 71
2.09416 0.320435 0.903168 34 43 61
2.12004 0.326218 0.927806 46 51 62
2.13388 0.330203 0.947575 45 49 68
2.14849 0.334353 0.968022 61 66 89
2.14921 0.336375 0.982465 61 72 90
2.15083 0.338562 0.997492 64 79 85
2.1523 0.34075 1.01263 62 73 77
2.16083 0.344085 1.03132 52 64 74
2.17628 0.348568 1.05364 44 55 59
2.1843 0.351906 1.0727 39 51 53
2.20018 0.356556 1.09596 29 41 36
2.2097 0.360224 1.11641 32 36 25
2.21097 0.362582 1.13294 72 65 42
2.21306 0.365104 1.15012 82 76 48
2.20807 0.366478 1.16377 80 77 47
2.202 0.367689 1.17697 92 90 66
2.18217 0.366603 1.18281 90 93 78
2.15466 0.364204 1.18433 57 73 85
2.1418 0.364266 1.19378 28 67 98
2.12894 0.364328 1.20324 21 62 93
2.13038 0.366853 1.22089 29 64 91
2.13165 0.369379 1.23868 36 63 82
2.13274 0.371906 1.25659 33 53 85
2.12711 0.373284 1.27071 40 66 93
2.12045 0.374498 1.28434 27 64 91
2.13683 0.379821 1.31222 27 67 100
2.17673 0.38942 1.35525 31 67 97
2.20957 0.397871 1.39474 53 77 83
2.2282 0.403859 1.42595 75 88 87
2.23921 0.408532 1.4528 63 82 84
2.2669 0.416333 1.49107 46 69 71
2.28694 0.42282 1.525 45 55 50
2.3074 0.429474 1.55986 48 51 43
2.30106 0.431193 1.577 54 57 49
2.3042 0.434723 1.6009 56 63 54
2.28889 0.434797 1.61215 51 57 50
2.28305 0.436682 1.63017 49 59 47
2.26768 0.436756 1.64147 51 55 44
2.23447 0.433371 1.63969 42 50 38
2.21922 0.433445 1.6509 39 56 75
2.20397 0.433519 1.66211 25 58 92
2.20619 0.437053 1.68668 22 60 93
2.19908 0.438776 1.70439 23 59 91
2.21072 0.44429 1.737 23 58 92
2.25864 0.457227 1.79909 25 56 82
2.29998 0.469013 1.85728 33 52 61
2.32364 0.47734 1.90226 38 52 55
2.3268 0.481545 1.93113 33 46 52
2.34074 0.488062 1.96954 21 40 49
2.36601 0.497056 2.01833 17 42 59
2.36961 0.501596 2.04938 21 47 74
2.36283 0.503993 2.07183 21 52 86
2.34513 0.504078 2.08484 21 53 90
2.32744 0.504164 2.09785 21 51 88
2.30974 0.504249 2.11086 23 55 92
2.3461 0.516228 2.17396 26 60 97
2.37269 0.526229 2.22928 28 60 90
2.40005 0.536563 2.28651 58 80 100
2.4047 0.541943 2.32302 69 88 102
2.3857 0.542035 2.33699 81 101 113
2.34359 0.536836 2.32802 111 125 133
2.31332 0.534281 2.33032 128 139 143
2.30595 0.537018 2.3557 131 143 145
2.30967 0.542402 2.39289 129 141 143
2.29067 0.542494 2.40687 134 145 144
2.27166 0.542585 2.42084 134 145 144
2.23067 0.537381 2.41105 133 145 147
2.17984 0.529692 2.38979 131 143 145
2.1309 0.522332 2.36963 135 145 147
2.09252 0.517452 2.36042 137 148 147
2.06445 0.515056 2.36234 133 146 145
2.03721 0.512824 2.3649 135 145 147
2.01927 0.51291 2.37809 135 146 145
1.99228 0.510677 2.38048 136 147 146
1.9648 0.508278 2.38196 136 148 150
1.93814 0.506043 2.3841 137 147 149
1.91164 0.503807 2.38612 137 146 145
1.89402 0.503892 2.39907 149 149 150
1.87641 0.503977 2.41202 148 148 142
1.85879 0.504062 2.42497 161 159 153
1.84966 0.50647 2.44916 161 168 159
1.83196 0.506555 2.46217 163 170 161
1.80595 0.504318 2.46383 163 170 161
1.7801 0.502079 2.46537 157 165 158
1.76256 0.502163 2.47826 157 164 160
1.73753 0.50009 2.48045 160 169 160
1.72007 0.500174 2.49328 158 165 156
1.70261 0.500258 2.50612 161 166 162
1.67732 0.498017 2.50725 157 164 155
1.65995 0.498101 2.52003 156 161 157
1.64257 0.498185 2.5328 163 163 157
1.61815 0.496108 2.53454 169 169 163
1.59334 0.493864 2.53531 170 171 163
1.56232 0.489625 2.52568 168 171 163
1.54526 0.489707 2.53823 171 172 164
1.51469 0.485466 2.52826 173 176 168
1.49777 0.485547 2.5407 173 174 166
1.48086 0.485629 2.55314 164 165 157
1.45792 0.483714 2.55503 149 152 137
1.44107 0.483795 2.56742 153 155 137
1.41148 0.479549 2.55674 163 155 148
1.39478 0.479629 2.56902 155 146 141
1.37234 0.477712 2.57054 156 147 142
1.35005 0.475794 2.57197 165 157 155
1.33349 0.475874 2.58414 164 154 152
1.31093 0.473788 2.58451 154 148 141
1.28899 0.471868 2.58567 144 138 131
1.26179 0.467948 2.57572 146 141 131
1.24551 0.468026 2.58769 157 153 141
1.22442 0.466271 2.58947 158 153 143
1.20303 0.464349 2.59023 160 158 146
1.17708 0.460591 2.58061 159 157 143
1.15141 0.456832 2.5708 157 155 141
1.14009 0.458744 2.59284 141 139 127
1.12415 0.458821 2.60456 143 141 127
1.10378 0.457062 2.60582 162 156 149
1.07917 0.453467 2.59646 166 164 164
1.05911 0.451707 2.59748 159 165 165
1.03919 0.449946 2.59841 159 165 165
1.02357 0.450021 2.6099 154 164 159
1.00795 0.450097 2.62138 158 169 167
0.984224 0.446497 2.61137 156 167 166
0.968731 0.446572 2.62277 148 159 157
0.953238 0.446647 2.63416 162 164 153
