ply
format ascii 1.0
comment pointcloud saved from PyCharm
element vertex 1321
property float32 x
property float32 y
property float32 z
property uchar blue
property uchar green
property uchar red
end_header
2.15307 -1.0228 2.45694 15 42 73
2.16006 -1.02716 2.48322 15 42 73
2.16612 -1.03107 2.50856 15 42 73
1.98787 -0.761706 -1.20737 46 66 100
1.99209 -0.764057 -1.19701 37 52 92
1.99629 -0.76641 -1.18658 38 61 97
2.00681 -0.77119 -1.17979 35 62 95
2.01205 -0.773952 -1.16978 30 59 92
2.01098 -0.774287 -1.15607 37 57 101
2.00992 -0.774622 -1.14235 36 55 103
2.00885 -0.774957 -1.12863 47 66 107
2.00778 -0.775292 -1.11492 54 72 116
2.00671 -0.775628 -1.1012 45 63 107
2.00564 -0.775963 -1.08748 51 71 115
2.00981 -0.778327 -1.07657 52 74 113
2.00874 -0.778663 -1.06282 67 89 123
2.00767 -0.778999 -1.04907 67 81 118
2.00659 -0.779335 -1.03531 68 80 122
2.00029 -0.777639 -1.0189 68 82 124
1.99922 -0.777974 -1.00518 69 83 125
1.99816 -0.778309 -0.991463 70 89 125
2.00857 -0.783122 -0.983368 70 88 127
2.01897 -0.787938 -0.975115 70 86 123
2.02936 -0.792758 -0.966705 66 84 123
2.03453 -0.795544 -0.955688 71 89 128
2.03969 -0.798333 -0.944586 73 89 126
2.03859 -0.798676 -0.930546 73 89 126
2.0375 -0.799019 -0.916507 73 89 126
2.0364 -0.799362 -0.902467 75 88 128
2.04051 -0.801747 -0.890696 82 96 133
2.04564 -0.804542 -0.8793 82 97 132
2.04454 -0.804887 -0.865181 79 97 127
2.04344 -0.805233 -0.851063 70 86 116
2.03612 -0.803123 -0.834394 79 94 127
2.02984 -0.80142 -0.818229 75 92 127
2.02874 -0.801763 -0.804189 78 95 130
2.03283 -0.804155 -0.792167 73 89 126
2.03794 -0.806957 -0.78047 77 93 130
2.04305 -0.809762 -0.768686 75 93 132
2.04815 -0.81257 -0.756817 76 94 133
2.04704 -0.812917 -0.742612 78 94 131
2.04593 -0.813264 -0.728408 76 92 129
2.05102 -0.816075 -0.716366 71 87 124
2.04991 -0.816423 -0.702118 71 88 123
2.0488 -0.816771 -0.687871 70 90 122
2.05387 -0.819587 -0.675657 74 94 128
2.05276 -0.819936 -0.661366 77 92 132
2.05164 -0.820285 -0.647076 73 89 126
2.0567 -0.823105 -0.63469 82 98 135
2.06792 -0.828399 -0.624081 77 96 132
2.0853 -0.836169 -0.615118 78 94 131
2.09752 -0.841884 -0.604417 79 93 130
2.10254 -0.844717 -0.591508 75 92 127
2.08805 -0.839711 -0.573161 75 91 128
2.04385 -0.82273 -0.547041 76 91 131
1.95459 -0.787562 -0.509761 76 91 131
1.77118 -0.714354 -0.449782 79 95 132
1.69547 -0.684483 -0.418918 78 93 133
1.66487 -0.672782 -0.399916 81 95 132
1.64453 -0.665207 -0.383715 79 94 134
1.63545 -0.662177 -0.370334 80 94 131
1.62639 -0.659145 -0.357067 141 121 141
1.61018 -0.653211 -0.342394 163 127 127
1.59807 -0.648929 -0.328777 110 89 86
1.59312 -0.647546 -0.316737 123 107 109
1.59632 -0.649478 -0.306319 149 133 135
1.6036 -0.653072 -0.296598 138 124 126
1.60985 -0.656253 -0.286581 129 118 119
1.61303 -0.658191 -0.27594 125 116 118
1.61622 -0.660131 -0.265243 122 113 115
1.61533 -0.660409 -0.253849 118 110 115
1.61749 -0.661935 -0.242913 118 111 113
1.62472 -0.665541 -0.232661 121 114 116
1.65123 -0.677058 -0.224921 122 114 112
1.71321 -0.703154 -0.221381 120 113 114
1.79033 -0.73552 -0.21881 118 114 114
1.85824 -0.764162 -0.214085 118 114 114
1.89367 -0.77949 -0.204879 118 114 115
1.89769 -0.781903 -0.191982 116 112 113
1.88551 -0.777642 -0.17749 122 115 117
1.86425 -0.769621 -0.162363 111 104 106
1.85311 -0.765769 -0.148332 101 100 104
1.84199 -0.761913 -0.134445 50 46 57
1.84097 -0.762233 -0.121366 14 11 15
1.83491 -0.760462 -0.10799 7 11 11
1.83389 -0.760781 -0.094947 7 10 13
1.84295 -0.765283 -0.0823541 7 10 13
1.86711 -0.776069 -0.0701859 5 9 9
1.88721 -0.785188 -0.0575362 4 9 12
1.90728 -0.794314 -0.0445854 6 10 10
1.9012 -0.792551 -0.0309086 6 10 10
1.88406 -0.786173 -0.0172024 8 12 12
1.82175 -0.760914 -0.00363554 8 11 14
1.74446 -0.729339 0.00897889 18 25 29
1.68229 -0.704035 0.0206888 46 51 67
1.6603 -0.695509 0.0323039 57 65 79
1.65938 -0.695799 0.0441781 63 71 85
1.65845 -0.696089 0.0560523 64 73 84
1.66153 -0.698061 0.0680908 64 71 82
1.6566 -0.696669 0.079801 63 70 81
1.65168 -0.695276 0.0914538 66 73 84
1.65075 -0.695565 0.103299 70 77 86
1.64983 -0.695855 0.115145 68 75 86
1.64891 -0.696144 0.12699 70 77 86
1.65197 -0.69812 0.139172 73 79 86
1.65504 -0.700097 0.151411 78 80 90
1.66208 -0.703763 0.164101 77 83 90
1.67011 -0.707854 0.177012 64 67 75
1.67315 -0.709837 0.189487 33 31 37
1.67221 -0.710132 0.201541 52 46 57
1.67525 -0.712117 0.214102 64 66 76
1.67034 -0.710721 0.225648 73 78 89
1.6694 -0.711015 0.237702 73 80 91
1.66846 -0.71131 0.249755 71 80 89
1.68041 -0.717108 0.263833 71 78 87
1.69235 -0.72291 0.278098 73 81 88
1.69933 -0.726598 0.291698 69 78 87
1.71223 -0.732833 0.306477 68 77 86
1.72017 -0.736952 0.320535 72 81 92
1.72316 -0.738953 0.333764 73 81 95
1.72219 -0.739259 0.346254 79 88 99
1.72615 -0.741686 0.359775 43 46 54
1.73406 -0.745815 0.37422 5 6 14
1.73308 -0.746123 0.386811 6 8 13
1.74197 -0.750681 0.401677 13 15 25
1.74098 -0.750991 0.41434 0 4 7
1.73506 -0.749173 0.425794 4 9 12
1.72029 -0.743523 0.434936 2 9 13
1.70554 -0.737868 0.443877 2 11 22
1.70064 -0.736468 0.45525 7 19 43
1.69967 -0.736771 0.467647 19 40 69
1.6987 -0.737074 0.480045 24 46 78
1.69774 -0.737377 0.492443 10 32 66
1.69677 -0.73768 0.50484 8 30 62
1.69581 -0.737983 0.517238 9 29 61
1.69876 -0.739994 0.530861 16 38 70
1.72032 -0.750122 0.550498 17 39 71
1.75655 -0.766669 0.575275 15 38 74
1.7898 -0.781947 0.599613 14 39 68
1.80834 -0.790822 0.619428 8 15 24
1.81708 -0.795424 0.636107 1 10 9
1.82092 -0.79789 0.651184 10 14 13
1.82574 -0.800786 0.666689 23 30 34
1.81884 -0.798544 0.677915 38 47 51
1.8178 -0.79887 0.691281 48 56 58
1.81188 -0.797053 0.702757 55 64 63
1.81084 -0.797379 0.716087 58 67 66
1.80494 -0.795559 0.727455 62 66 71
1.80876 -0.79803 0.742746 63 69 69
1.80773 -0.798356 0.756076 61 67 66
1.81738 -0.803407 0.773959 68 74 73
1.82119 -0.805884 0.789473 65 69 69
1.82499 -0.808362 0.805059 66 70 70
1.82976 -0.811273 0.821151 64 69 72
1.82871 -0.811603 0.834674 61 69 71
1.82184 -0.809351 0.8455 54 62 64
1.82079 -0.80968 0.85898 36 38 43
1.81974 -0.810009 0.872461 35 37 42
1.81869 -0.810339 0.885941 38 41 44
1.82827 -0.815412 0.904684 39 44 47
1.82722 -0.815743 0.918243 42 47 50
1.83678 -0.820821 0.937223 46 46 47
1.82993 -0.818564 0.947862 44 46 51
1.80861 -0.809826 0.950808 45 47 52
1.79214 -0.803241 0.956024 31 44 57
1.78147 -0.799245 0.96414 29 60 94
1.78043 -0.799569 0.977398 21 57 95
1.78421 -0.802056 0.993335 19 50 89
1.79856 -0.809305 1.01532 13 45 82
1.82828 -0.823487 1.04633 16 47 81
1.85892 -0.838114 1.07836 26 41 60
1.87992 -0.848419 1.10521 26 26 36
1.88938 -0.85353 1.12554 24 28 33
1.90554 -0.861681 1.15008 16 20 20
1.91018 -0.864632 1.16784 19 24 27
1.91482 -0.867586 1.18569 19 25 24
1.91944 -0.870541 1.20363 26 33 24
1.92406 -0.873499 1.22165 26 33 29
1.92294 -0.873851 1.23607 25 24 21
1.92182 -0.874203 1.25049 26 26 20
1.91496 -0.871946 1.26114 25 25 19
1.90811 -0.869687 1.27169 24 24 18
1.907 -0.870037 1.28603 26 24 24
1.92876 -0.880838 1.31597 25 24 21
1.95717 -0.894695 1.35087 27 27 21
1.99316 -0.91205 1.39153 28 28 22
2.01103 -0.921135 1.41997 35 33 27
2.0165 -0.924558 1.43988 25 22 26
2.00866 -0.921876 1.45028 32 30 30
1.98278 -0.910898 1.4474 33 30 27
1.93224 -0.888558 1.42592 27 23 23
1.87986 -0.865327 1.40229 26 26 26
1.85694 -0.855623 1.40005 26 43 57
1.85016 -0.853343 1.40976 32 60 88
1.84907 -0.853685 1.42375 15 42 73
1.84798 -0.854027 1.43775 15 42 73
1.84121 -0.851743 1.44728 15 42 73
1.82972 -0.847268 1.45298 15 42 73
1.81257 -0.84016 1.45396 15 42 73
1.80678 -0.838305 1.46389 15 42 73
1.81043 -0.840832 1.48147 15 42 73
1.83105 -0.851255 1.51315 15 42 73
1.85071 -0.861248 1.54438 15 42 73
1.86657 -0.869492 1.57275 15 42 73
1.89372 -0.883012 1.61098 15 42 73
1.93306 -0.902253 1.66016 15 42 73
1.98082 -0.925463 1.71729 15 42 73
2.02477 -0.946934 1.77187 15 42 73
2.04987 -0.959626 1.81055 15 42 73
2.0693 -0.969687 1.84461 15 42 73
2.07464 -0.973154 1.86632 15 42 73
2.0734 -0.973542 1.88218 15 42 73
2.06561 -0.970846 1.89202 15 42 73
2.05033 -0.964622 1.89484 15 42 73
2.04255 -0.961919 1.90443 15 42 73
2.04133 -0.962302 1.92007 15 42 73
2.04666 -0.965772 1.94193 15 42 73
2.05291 -0.969687 1.96478 15 42 73
2.05822 -0.973162 1.98684 15 42 73
2.05699 -0.973549 2.00265 15 42 73
2.04922 -0.970842 2.01204 15 42 73
2.02096 -0.958407 2.00103 15 42 73
1.98156 -0.940654 1.97844 15 42 73
1.94871 -0.925985 1.96182 15 42 73
1.92986 -0.917942 1.95888 15 42 73
1.91661 -0.91255 1.96138 15 42 73
1.90896 -0.90981 1.96945 15 42 73
1.92638 -0.919032 2.0035 15 42 73
1.94936 -0.930921 2.04367 15 42 73
1.97323 -0.943263 2.0852 15 42 73
1.99059 -0.952509 2.1202 15 42 73
2.00236 -0.959098 2.14952 15 42 73
2.0206 -0.968801 2.18605 15 42 73
2.02586 -0.972292 2.20876 15 42 73
2.03203 -0.976231 2.23259 15 42 73
2.04375 -0.982839 2.26267 15 42 73
2.06376 -0.993454 2.30223 15 42 73
2.07636 -1.00052 2.33381 15 42 73
2.09632 -1.01115 2.37397 15 42 73
2.10889 -1.01823 2.40604 15 42 73
2.11498 -1.02219 2.43091 15 42 73
2.12107 -1.02616 2.4559 15 42 73
1.98161 -0.772804 -1.20385 46 66 100
1.98056 -0.773134 -1.19037 37 52 92
1.99109 -0.777989 -1.18378 38 61 97
1.99529 -0.780378 -1.17331 35 62 95
2.0058 -0.78524 -1.16645 30 59 92
2.00474 -0.785574 -1.15277 37 57 101
2.00367 -0.785908 -1.1391 36 55 103
2.00261 -0.786242 -1.12542 47 66 107
2.00154 -0.786576 -1.11175 54 72 116
1.99523 -0.784847 -1.0952 48 66 110
1.99941 -0.787244 -1.0844 50 74 114
1.99834 -0.787579 -1.07073 52 74 113
2.00356 -0.790392 -1.06038 67 89 123
2.00249 -0.790727 -1.04666 67 81 118
2.00142 -0.791062 -1.03295 68 80 122
1.99408 -0.788915 -1.01603 68 82 124
1.98779 -0.78718 -0.999729 69 83 125
1.98046 -0.785029 -0.98298 70 89 125
1.98566 -0.787846 -0.972453 70 88 127
1.99608 -0.792738 -0.96436 71 87 124
2.0117 -0.799706 -0.958594 66 84 123
2.03459 -0.809583 -0.956027 71 89 128
2.03975 -0.812415 -0.944926 73 89 126
2.03866 -0.812758 -0.930886 73 89 126
2.04276 -0.815177 -0.919187 73 89 126
2.04167 -0.815521 -0.905112 75 88 128
2.04057 -0.815865 -0.891036 82 96 133
2.03947 -0.816209 -0.87696 81 96 131
2.03318 -0.814473 -0.860687 80 98 128
2.02586 -0.812319 -0.844053 68 84 114
2.01855 -0.810163 -0.827505 79 94 127
2.00606 -0.805923 -0.808952 75 92 127
2.01119 -0.808762 -0.797543 78 95 130
2.0215 -0.813688 -0.788066 73 89 126
2.02662 -0.816531 -0.776449 77 93 130
2.0369 -0.821464 -0.766692 75 93 132
2.0358 -0.821809 -0.752574 76 94 133
2.0409 -0.824659 -0.740705 78 94 131
2.0398 -0.825005 -0.726544 75 91 128
2.04489 -0.827859 -0.714546 70 86 123
2.04378 -0.828206 -0.700342 71 88 123
2.04886 -0.831062 -0.688215 70 90 122
2.04775 -0.83141 -0.673967 74 94 128
2.04664 -0.831758 -0.65972 77 92 132
2.04553 -0.832107 -0.645472 73 89 126
2.04442 -0.832455 -0.631224 82 98 135
2.04948 -0.835318 -0.61884 77 96 132
2.05453 -0.838183 -0.606369 78 94 131
2.05958 -0.84105 -0.593812 78 92 129
2.06462 -0.843919 -0.581169 76 93 128
2.05734 -0.841752 -0.565059 75 90 130
1.98443 -0.812703 -0.531456 78 93 133
1.8542 -0.7601 -0.483878 78 93 133
1.72616 -0.708294 -0.438628 79 95 132
1.66583 -0.684198 -0.411864 78 91 131
1.64957 -0.678173 -0.396508 81 95 132
1.63231 -0.671721 -0.381128 79 94 134
1.62017 -0.667369 -0.367136 80 94 131
1.60805 -0.663013 -0.353302 141 121 141
1.599 -0.659918 -0.340277 163 127 127
1.59404 -0.658506 -0.328208 110 89 86
1.59725 -0.660467 -0.31782 123 107 109
1.60453 -0.664117 -0.308157 149 133 135
1.61078 -0.667347 -0.298191 138 124 126
1.61397 -0.669313 -0.28758 129 118 119
1.61309 -0.669591 -0.276215 125 116 118
1.61627 -0.671559 -0.265518 122 113 115
1.61843 -0.673106 -0.254604 118 110 115
1.62567 -0.676768 -0.244411 118 111 113
1.63696 -0.682127 -0.234685 121 114 116
1.68884 -0.704422 -0.230324 122 114 112
1.7721 -0.739865 -0.229286 120 113 114
1.85932 -0.777031 -0.227554 118 114 114
1.89984 -0.794731 -0.219196 118 114 114
1.89879 -0.795059 -0.205751 118 114 115
1.87649 -0.786479 -0.190153 116 112 113
1.85017 -0.776195 -0.174474 122 115 117
1.82387 -0.765901 -0.159154 111 104 106
1.81275 -0.76197 -0.145408 101 100 104
1.80165 -0.758035 -0.131805 50 46 57
1.79157 -0.754522 -0.118413 14 11 15
1.78554 -0.752707 -0.105388 7 11 11
1.78051 -0.751315 -0.0924864 8 11 14
1.77953 -0.751625 -0.0798234 8 11 14
1.7876 -0.755766 -0.0675027 6 10 10
1.79567 -0.759911 -0.0550528 5 10 13
1.79467 -0.760223 -0.0422608 6 10 10
1.78463 -0.756699 -0.02932 6 10 10
1.76454 -0.748907 -0.0164148 6 10 10
1.73142 -0.735561 -0.00375389 8 11 14
1.69131 -0.719217 0.0084133 18 25 29
1.66128 -0.707129 0.0201428 46 51 67
1.65233 -0.704001 0.0318623 57 65 79
1.65141 -0.70429 0.0436792 63 71 85
1.6545 -0.706289 0.0556307 64 73 84
1.65357 -0.706578 0.0674763 64 71 82
1.65265 -0.706868 0.0793218 63 70 81
1.65173 -0.707157 0.0911675 66 73 84
1.6508 -0.707447 0.103013 70 77 86
1.65388 -0.70945 0.115137 68 75 86
1.65694 -0.711454 0.127318 70 77 86
1.66001 -0.71346 0.139556 73 79 86
1.66306 -0.715468 0.151852 78 80 90
1.66612 -0.717476 0.164205 77 83 90
1.67016 -0.719916 0.176721 64 67 75
1.67321 -0.721927 0.189196 33 31 37
1.67625 -0.72394 0.201728 52 46 57
1.67928 -0.725955 0.214318 64 66 76
1.68331 -0.728401 0.227099 73 78 89
1.68236 -0.728698 0.239246 73 80 91
1.68538 -0.730716 0.251986 71 80 89
1.69336 -0.734888 0.265562 71 78 87
1.70034 -0.738633 0.279104 73 81 88
1.71325 -0.744965 0.29378 69 78 87
1.72516 -0.750872 0.30848 68 77 86
1.72914 -0.753333 0.321892 72 81 92
1.73311 -0.755796 0.335376 73 81 95
1.73213 -0.756103 0.347939 79 88 99
1.73115 -0.75641 0.360501 38 41 49
1.73017 -0.756717 0.373064 5 7 12
1.73314 -0.758752 0.386507 6 8 13
1.74202 -0.763382 0.401371 13 15 25
1.74498 -0.765422 0.414972 0 4 7
1.74005 -0.764001 0.426697 4 9 12
1.72527 -0.758252 0.435877 2 9 13
1.71052 -0.752497 0.444856 2 11 22
1.70069 -0.748903 0.45495 7 19 43
1.70366 -0.750939 0.468429 19 40 69
1.69876 -0.749509 0.479745 24 46 78
1.69779 -0.749812 0.492143 10 32 66
1.69683 -0.750115 0.504541 8 30 62
1.69586 -0.750418 0.516939 9 29 61
1.69882 -0.752458 0.530561 16 38 70
1.71646 -0.761014 0.54894 17 39 71
1.7429 -0.773489 0.570477 15 38 74
1.77518 -0.788581 0.594381 12 37 66
1.79372 -0.797597 0.614085 6 13 22
1.80247 -0.802269 0.630655 3 12 11
1.81121 -0.806944 0.647369 10 14 13
1.81018 -0.807269 0.660663 23 30 34
1.80914 -0.807594 0.673957 38 47 51
1.8081 -0.807919 0.687251 48 56 58
1.80707 -0.808243 0.700545 55 64 63
1.80116 -0.806388 0.711914 58 67 66
1.805 -0.808893 0.727134 62 66 71
1.80396 -0.809218 0.740427 63 69 69
1.80778 -0.811726 0.755754 61 67 66
1.81161 -0.814236 0.771153 68 74 73
1.81639 -0.817185 0.787043 65 69 69
1.82505 -0.821884 0.804733 66 70 70
1.82982 -0.824837 0.820824 64 69 72
1.83362 -0.827355 0.83656 61 69 71
1.83256 -0.827687 0.850119 54 62 64
1.83151 -0.828018 0.863679 36 38 43
1.83045 -0.828349 0.877238 35 37 42
1.83423 -0.830872 0.893152 38 41 44
1.83317 -0.831204 0.906748 39 44 47
1.83211 -0.831536 0.920343 42 47 50
1.82622 -0.829674 0.931475 46 46 47
1.82034 -0.827811 0.942535 44 46 51
1.80385 -0.821116 0.947948 45 47 52
1.78738 -0.814415 0.953131 31 44 57
1.78153 -0.812543 0.963819 29 60 94
1.78049 -0.812867 0.977077 21 57 95
1.77946 -0.813191 0.990335 19 50 89
1.78804 -0.817915 1.00902 13 45 82
1.81296 -0.830124 1.0372 16 47 81
1.84265 -0.844545 1.06855 26 41 60
1.8579 -0.85237 1.0919 26 26 36
1.87889 -0.862844 1.11892 24 28 33
1.88834 -0.868037 1.13932 17 21 20
1.89875 -0.873674 1.16047 19 24 27
1.90913 -0.879316 1.18179 19 25 24
1.90802 -0.879665 1.19608 26 33 24
1.91265 -0.882663 1.21401 26 33 29
1.91727 -0.885664 1.23203 25 24 21
1.91615 -0.886015 1.24641 26 26 20
1.91503 -0.886366 1.26079 25 25 19
1.91391 -0.886718 1.27516 24 24 18
1.91851 -0.889724 1.2934 26 24 24
1.92883 -0.895387 1.31562 25 24 21
1.95723 -0.909468 1.35051 27 27 21
1.98751 -0.924445 1.38717 28 28 22
1.99872 -0.930572 1.41087 35 33 27
1.99755 -0.93094 1.42593 25 22 26
1.98972 -0.928203 1.43619 32 30 30
1.96385 -0.917035 1.43317 33 30 27
1.92091 -0.897868 1.41716 27 23 23
1.88562 -0.882238 1.40619 27 27 28
1.857 -0.869705 1.39971 26 43 57
1.85022 -0.867382 1.40942 32 60 88
1.84913 -0.867725 1.42341 15 42 73
1.84236 -0.865398 1.43299 15 42 73
1.83654 -0.863515 1.44323 15 42 73
1.82978 -0.861185 1.45264 15 42 73
1.81263 -0.853955 1.45363 15 42 73
1.81156 -0.854291 1.46739 15 42 73
1.81615 -0.8573 1.48577 15 42 73
1.83112 -0.865215 1.51282 15 42 73
1.85077 -0.875366 1.54404 15 42 73
1.86664 -0.88374 1.5724 15 42 73
1.88813 -0.894798 1.60583 15 42 73
1.92183 -0.911668 1.65011 15 42 73
1.96302 -0.932124 1.70143 15 42 73
2.00509 -0.953043 1.75423 15 42 73
2.03678 -0.969061 1.79856 15 42 73
2.05529 -0.978831 1.83168 15 42 73
2.06157 -0.982793 1.85413 15 42 73
2.06035 -0.983178 1.86988 15 42 73
2.05162 -0.979982 1.87877 15 42 73
2.03728 -0.974095 1.88235 15 42 73
2.02951 -0.97134 1.89183 15 42 73
2.0283 -0.97172 1.90738 15 42 73
2.03364 -0.975239 1.92913 15 42 73
2.03896 -0.97876 1.95099 15 42 73
2.04428 -0.982283 1.97294 15 42 73
2.05052 -0.986258 1.99591 15 42 73
2.0353 -0.979906 1.99793 15 42 73
2.01451 -0.970854 1.99419 15 42 73
1.98162 -0.955952 1.97807 15 42 73
1.96088 -0.946883 1.97364 15 42 73
1.94202 -0.938706 1.9708 15 42 73
1.92877 -0.933222 1.97339 15 42 73
1.9211 -0.930435 1.98155 15 42 73
1.92645 -0.933949 2.00314 15 42 73
1.94293 -0.942872 2.0365 15 42 73
1.96681 -0.955406 2.07797 15 42 73
1.98417 -0.964794 2.11292 15 42 73
2.00243 -0.97464 2.14915 15 42 73
2.01419 -0.981336 2.17866 15 42 73
2.01297 -0.981717 2.19426 15 42 73
2.01823 -0.985259 2.21697 15 42 73
2.03088 -0.992417 2.24796 15 42 73
2.04997 -1.00274 2.28638 15 42 73
2.06905 -1.01308 2.32512 15 42 73
2.08163 -1.02025 2.35686 15 42 73
2.10158 -1.03105 2.39723 15 42 73
2.10768 -1.03507 2.42204 15 42 73
2.12114 -1.04272 2.4555 15 42 73
1.97745 -0.783906 -1.21442 48 62 99
1.9764 -0.784234 -1.20098 46 66 100
1.98062 -0.786655 -1.1907 37 52 92
1.97957 -0.786985 -1.17722 40 63 99
1.98483 -0.789827 -1.16745 35 62 95
1.98904 -0.792252 -1.15699 30 59 92
1.99954 -0.797194 -1.15008 37 57 101
2.00373 -0.799623 -1.13943 36 55 103
2.00897 -0.802475 -1.1293 47 66 107
2.0079 -0.80281 -1.11558 54 72 116
2.00054 -0.800626 -1.09841 48 66 110
1.99947 -0.80096 -1.08473 50 74 114
1.9984 -0.801294 -1.07106 52 74 113
1.99734 -0.801628 -1.05738 67 89 123
1.99627 -0.801962 -1.04371 67 81 118
1.99521 -0.802296 -1.03004 68 80 122
1.98891 -0.800526 -1.0137 68 82 124
1.98158 -0.798333 -0.996904 69 83 125
1.9753 -0.796559 -0.980716 70 89 125
1.96902 -0.794783 -0.964599 70 88 127
1.9784 -0.79933 -0.956119 71 87 124
1.99507 -0.806832 -0.950974 67 85 124
2.01693 -0.816449 -0.948036 71 89 128
2.03356 -0.823964 -0.942368 73 89 126
2.03872 -0.82684 -0.931225 73 89 126
2.04283 -0.829296 -0.919528 73 89 126
2.03653 -0.827526 -0.903146 75 88 128
2.03543 -0.827869 -0.889106 82 96 133
2.02187 -0.823137 -0.869703 81 96 131
2.00936 -0.818823 -0.850912 80 98 128
2.00205 -0.816622 -0.834442 68 84 114
2.00098 -0.81696 -0.82061 79 94 127
1.9999 -0.817298 -0.806778 74 93 129
2.00504 -0.820179 -0.795413 78 95 130
2.02156 -0.827727 -0.788404 73 89 126
2.03186 -0.832735 -0.778772 77 93 130
2.03697 -0.835625 -0.767033 75 93 132
2.04207 -0.838518 -0.755209 76 94 133
2.04717 -0.841412 -0.743299 78 94 131
2.04606 -0.841759 -0.729094 75 91 128
2.04495 -0.842106 -0.714889 70 86 123
2.04384 -0.842453 -0.700685 69 86 121
2.04892 -0.845353 -0.688559 70 90 122
2.054 -0.848255 -0.676348 74 94 128
2.05288 -0.848604 -0.662057 77 92 132
2.05177 -0.848953 -0.647766 73 89 126
2.04448 -0.846746 -0.631568 82 98 135
2.04337 -0.847094 -0.617321 77 96 132
2.04843 -0.850001 -0.604894 78 94 131
2.05348 -0.85291 -0.592382 78 92 129
2.05236 -0.85326 -0.578048 76 93 128
2.00917 -0.836103 -0.552152 75 90 130
1.90142 -0.792018 -0.50953 78 93 133
1.72305 -0.718408 -0.449932 78 93 133
1.67909 -0.700745 -0.426938 79 95 132
1.64643 -0.687773 -0.407333 78 91 131
1.63734 -0.684632 -0.393833 81 95 132
1.6252 -0.680203 -0.379732 79 94 134
1.61613 -0.677056 -0.366484 80 94 131
1.60401 -0.67262 -0.352676 141 121 141
1.59497 -0.669466 -0.339679 163 127 127
1.59818 -0.671455 -0.32932 110 89 86
1.60546 -0.675161 -0.319716 123 107 109
1.61172 -0.678441 -0.309801 149 133 135
1.61491 -0.680435 -0.29922 134 123 124
1.6181 -0.682431 -0.288581 129 118 119
1.61721 -0.682709 -0.277187 125 116 118
1.61937 -0.684277 -0.266295 122 113 115
1.62255 -0.686276 -0.25552 118 110 115
1.62572 -0.688276 -0.244688 118 111 113
1.64107 -0.695442 -0.235548 121 114 116
1.70208 -0.721987 -0.232414 122 114 112
1.77723 -0.754583 -0.230245 120 113 114
1.83404 -0.77945 -0.224765 118 114 114
1.83809 -0.781922 -0.212379 118 114 114
1.82695 -0.777928 -0.198273 118 114 115
1.8057 -0.769616 -0.183283 116 112 113
1.78143 -0.760002 -0.168293 122 115 117
1.76124 -0.752108 -0.153986 111 104 106
1.75622 -0.750685 -0.14117 101 100 104
1.74111 -0.74494 -0.127671 50 46 57
1.73107 -0.741352 -0.114707 14 10 11
1.72204 -0.738192 -0.101932 7 10 13
1.71604 -0.736328 -0.0894296 8 11 14
1.71509 -0.736627 -0.0772253 8 11 14
1.71414 -0.736925 -0.0650213 6 10 10
1.70514 -0.733758 -0.052569 5 10 13
1.69514 -0.730155 -0.0402075 6 10 10
1.68112 -0.724814 -0.0279083 6 10 10
1.66411 -0.718168 -0.0157669 7 10 13
1.65515 -0.714988 -0.00387388 9 12 15
1.64519 -0.71137 0.00789968 20 29 33
1.64027 -0.709921 0.019604 50 57 73
1.63935 -0.710207 0.0313277 56 64 78
1.64245 -0.712232 0.0431566 63 71 85
1.64554 -0.714258 0.0550431 64 73 84
1.64962 -0.71672 0.0670275 64 71 82
1.6527 -0.718749 0.0790356 63 70 81
1.65578 -0.72078 0.0911014 66 73 84
1.66285 -0.724553 0.103473 70 77 86
1.6749 -0.730508 0.116306 68 75 86
1.68195 -0.734288 0.128943 70 77 86
1.685 -0.736327 0.14136 73 79 86
1.68406 -0.736623 0.153471 78 80 90
1.68311 -0.736919 0.165582 77 83 90
1.67818 -0.735469 0.177272 64 67 75
1.67724 -0.735764 0.189354 32 30 36
1.68028 -0.737807 0.201915 55 49 60
1.68431 -0.740288 0.214659 64 66 76
1.68336 -0.740584 0.226806 73 78 89
1.68639 -0.742631 0.239517 73 80 91
1.68941 -0.744678 0.252285 71 80 89
1.69342 -0.747165 0.265266 71 78 87
1.7004 -0.750967 0.278807 73 81 88
1.70836 -0.75521 0.292632 69 78 87
1.7163 -0.759456 0.306586 68 77 86
1.72029 -0.761952 0.319933 72 81 92
1.72327 -0.764011 0.33316 73 81 95
1.72724 -0.76651 0.346643 79 88 99
1.73121 -0.76901 0.360198 38 41 49
1.73418 -0.771074 0.373611 5 7 12
1.73813 -0.773578 0.387302 4 7 15
1.74602 -0.777842 0.401973 13 15 25
1.74996 -0.78035 0.415836 0 4 7
1.74405 -0.778462 0.427357 4 9 12
1.72927 -0.772612 0.436568 2 9 13
1.71451 -0.766758 0.445578 0 11 24
1.70468 -0.7631 0.455702 6 18 42
1.70371 -0.763404 0.468129 20 41 70
1.69882 -0.761944 0.479446 23 45 77
1.69785 -0.762247 0.491844 9 31 65
1.69688 -0.76255 0.504241 8 30 62
1.69592 -0.762853 0.516639 12 32 64
1.69887 -0.764922 0.530261 16 38 70
1.71162 -0.771407 0.547071 17 39 71
1.73806 -0.784082 0.568567 15 38 74
1.76545 -0.797208 0.590792 12 37 66
1.78889 -0.808577 0.612094 6 13 22
1.79764 -0.81332 0.628627 3 12 11
1.80639 -0.818066 0.645303 9 13 12
1.81512 -0.822816 0.662123 24 31 35
1.81408 -0.823142 0.675453 39 48 52
1.81304 -0.823468 0.688783 48 56 58
1.812 -0.823793 0.702113 55 64 63
1.81096 -0.824119 0.715443 58 67 66
1.80992 -0.824445 0.728772 62 66 71
1.81375 -0.826989 0.744098 63 69 69
1.81854 -0.829979 0.759902 61 67 66
1.82236 -0.832526 0.775379 68 74 73
1.82617 -0.835076 0.790927 65 69 69
1.83579 -0.840293 0.809114 66 70 70
1.84541 -0.845514 0.827458 64 69 72
1.84435 -0.845848 0.841097 61 69 71
1.84813 -0.848405 0.856982 54 62 64
1.84706 -0.848739 0.870656 36 38 43
1.846 -0.849074 0.88433 35 37 42
1.84493 -0.849408 0.898004 38 41 44
1.83323 -0.84484 0.906419 39 44 47
1.82734 -0.842944 0.917588 42 47 50
1.82145 -0.841045 0.928685 46 46 47
1.80978 -0.836468 0.936713 44 46 51
1.79812 -0.831888 0.944584 45 47 52
1.78744 -0.82775 0.95281 31 44 57
1.78159 -0.825841 0.963499 29 60 94
1.78055 -0.826165 0.976757 21 57 95
1.77952 -0.826489 0.990015 19 50 89
1.7881 -0.831285 1.0087 13 45 82
1.80245 -0.838768 1.03083 16 47 81
1.82734 -0.85118 1.05931 26 41 60
1.8522 -0.863601 1.08818 26 26 36
1.86744 -0.871552 1.11172 24 28 33
1.88265 -0.87951 1.13551 17 21 20
1.89306 -0.885232 1.15661 17 22 25
1.8977 -0.888269 1.17433 17 21 20
1.89659 -0.888616 1.18853 22 31 22
1.90123 -0.891656 1.20638 28 33 29
1.90586 -0.894697 1.22432 26 25 22
1.91621 -0.900436 1.24606 26 26 20
1.92082 -0.903482 1.26421 24 24 18
1.92542 -0.906531 1.28245 21 21 15
1.93002 -0.909582 1.30077 26 24 24
1.94033 -0.915335 1.32308 25 24 21
1.96397 -0.92739 1.35476 27 27 21
1.98758 -0.939455 1.38681 28 28 22
1.99212 -0.942523 1.40581 35 33 27
1.98525 -0.940187 1.41674 25 22 26
1.97172 -0.934694 1.42279 32 30 30
1.94586 -0.923335 1.41964 33 30 27
1.91528 -0.909712 1.41261 28 24 24
1.88568 -0.896529 1.40585 27 27 28
1.86181 -0.886045 1.40294 26 43 57
1.85597 -0.884131 1.41341 32 60 88
1.84919 -0.881764 1.42308 15 42 73
1.8481 -0.882106 1.43707 15 42 73
1.83093 -0.874762 1.43843 15 42 73
1.82984 -0.875101 1.45231 15 42 73
1.81837 -0.870464 1.45785 15 42 73
1.82201 -0.873064 1.47547 15 42 73
1.8266 -0.876118 1.49393 15 42 73
1.84156 -0.884158 1.52105 15 42 73
1.85084 -0.889484 1.5437 15 42 73
1.8667 -0.897987 1.57206 15 42 73
1.8882 -0.909218 1.60548 15 42 73
1.90966 -0.920457 1.63925 15 42 73
1.94427 -0.938058 1.68477 15 42 73
1.97978 -0.956126 1.73166 15 42 73
2.01712 -0.975116 1.78077 15 42 73
2.03564 -0.985034 1.81373 15 42 73
2.04757 -0.991777 1.84109 15 42 73
2.04635 -0.992159 1.85673 15 42 73
2.04513 -0.992541 1.87238 15 42 73
2.0308 -0.986553 1.87591 15 42 73
2.02303 -0.983746 1.88535 15 42 73
2.01527 -0.980937 1.89469 15 42 73
2.02716 -0.987692 1.92255 15 42 73
2.03249 -0.991263 1.94435 15 42 73
2.03781 -0.994835 1.96626 15 42 73
2.03659 -0.995218 1.9819 15 42 73
2.02231 -0.989212 1.98473 15 42 73
2.00153 -0.980006 1.9809 15 42 73
1.98169 -0.97125 1.9777 15 42 73
1.96095 -0.96203 1.97328 15 42 73
1.94209 -0.953716 1.97044 15 42 73
1.93441 -0.950882 1.97874 15 42 73
1.92117 -0.945301 1.9812 15 42 73
1.92652 -0.948865 2.00278 15 42 73
1.93743 -0.955179 2.0303 15 42 73
1.96038 -0.967449 2.07074 15 42 73
1.98424 -0.980186 2.11255 15 42 73
2.0025 -0.990183 2.14877 15 42 73
2.01426 -0.996979 2.17829 15 42 73
2.026 -1.00378 2.20801 15 42 73
2.04512 -1.01426 2.24605 15 42 73
2.06515 -1.0252 2.28543 15 42 73
2.08423 -1.03569 2.32412 15 42 73
2.1042 -1.04665 2.36415 15 42 73
2.12507 -1.05807 2.40556 15 42 73
2.14592 -1.06951 2.44732 15 42 73
2.16029 -1.07773 2.482 15 42 73
2.16634 -1.08182 2.50734 15 42 73
1.98911 -0.802069 -1.22187 48 62 99
1.98173 -0.799847 -1.2045 46 66 100
1.98068 -0.800176 -1.19102 37 52 92
1.97963 -0.800506 -1.17754 40 63 99
1.97858 -0.800835 -1.16406 34 61 94
1.98384 -0.803721 -1.15425 30 59 92
1.9933 -0.808315 -1.14678 37 57 101
2.0101 -0.815898 -1.14334 36 55 103
2.01428 -0.818366 -1.13258 47 66 107
2.02476 -0.823398 -1.12524 54 72 116
2.02368 -0.823736 -1.11141 48 66 110
2.01107 -0.819375 -1.09132 50 74 114
2.00999 -0.819711 -1.07757 55 78 114
1.9974 -0.815344 -1.05771 67 89 123
1.99633 -0.815678 -1.04404 67 81 118
1.99527 -0.816012 -1.03037 68 80 122
1.9942 -0.816346 -1.01669 68 82 124
1.98791 -0.814539 -1.00039 69 83 125
1.98058 -0.812301 -0.983637 70 89 125
1.9743 -0.810491 -0.967484 70 88 127
1.97846 -0.812966 -0.956447 71 87 124
1.98887 -0.818017 -0.948322 67 85 124
2.01074 -0.827792 -0.94543 73 91 130
2.02216 -0.833281 -0.937394 73 89 126
2.03253 -0.838346 -0.92871 73 89 126
2.03144 -0.838688 -0.914713 73 89 126
2.03035 -0.83903 -0.900716 75 88 128
2.01782 -0.834641 -0.881723 82 96 133
2.01051 -0.8324 -0.865122 81 96 131
2.00319 -0.830157 -0.848608 80 98 128
1.99693 -0.828343 -0.832612 68 84 114
2.00104 -0.830833 -0.820944 79 94 127
2.00618 -0.833757 -0.809623 74 93 129
2.0165 -0.838837 -0.800272 78 95 130
2.03302 -0.846509 -0.793187 73 89 126
2.04434 -0.85203 -0.783874 77 93 130
2.05565 -0.857555 -0.77439 75 93 132
2.06074 -0.860494 -0.762437 76 94 133
2.06583 -0.863434 -0.750399 78 94 131
2.06471 -0.863785 -0.736065 75 91 128
2.0574 -0.861541 -0.719565 70 86 123
2.05629 -0.861891 -0.705275 69 86 121
2.05518 -0.86224 -0.690984 70 90 122
2.06025 -0.865186 -0.67873 74 94 128
2.05913 -0.865536 -0.664397 77 92 132
2.06419 -0.868485 -0.652014 73 89 126
2.06307 -0.868836 -0.637637 82 98 135
2.06195 -0.869188 -0.62326 77 96 132
2.06699 -0.872141 -0.610706 78 94 131
2.06587 -0.872494 -0.596286 78 92 129
2.05859 -0.870242 -0.58013 76 93 128
2.00308 -0.84758 -0.550798 75 90 130
1.74148 -0.737588 -0.466951 75 90 130
1.67185 -0.70877 -0.436831 77 92 132
1.64328 -0.697317 -0.418099 79 95 132
1.63419 -0.694119 -0.404569 78 91 131
1.62921 -0.692659 -0.39214 81 95 132
1.61707 -0.68815 -0.378094 79 94 134
1.6121 -0.686685 -0.36583 80 94 131
1.59998 -0.682169 -0.352049 141 121 141
1.5991 -0.682444 -0.34082 163 127 127
1.60639 -0.686206 -0.331275 110 89 86
1.61265 -0.689535 -0.321412 123 107 109
1.61584 -0.691557 -0.31086 149 133 135
1.61496 -0.691835 -0.299494 134 123 124
1.61815 -0.693859 -0.288856 124 113 115
1.61319 -0.69239 -0.276764 125 116 118
1.6123 -0.692668 -0.265399 122 113 115
1.61548 -0.694694 -0.254675 118 110 115
1.61764 -0.696285 -0.24374 118 111 113
1.633 -0.703564 -0.23466 121 114 116
1.6727 -0.721354 -0.228681 118 110 108
1.72656 -0.745289 -0.223969 120 113 114
1.74791 -0.755225 -0.214503 118 114 114
1.73783 -0.751583 -0.201086 118 114 114
1.72371 -0.746184 -0.187357 119 115 116
1.71466 -0.742973 -0.17433 115 111 112
1.70865 -0.741076 -0.161704 122 115 117
1.70771 -0.741372 -0.149594 113 106 108
1.70272 -0.739912 -0.137157 100 98 104
1.6937 -0.736693 -0.124481 48 44 57
1.67964 -0.731273 -0.111584 14 10 11
1.67064 -0.728048 -0.0991737 7 10 13
1.66972 -0.728338 -0.0872994 8 11 14
1.66476 -0.726868 -0.075243 7 10 13
1.65477 -0.723196 -0.0630521 5 9 9
1.6458 -0.719961 -0.0510214 5 10 13
1.63684 -0.716723 -0.0391054 6 10 10
1.63191 -0.715246 -0.0273715 6 10 10
1.63502 -0.717294 -0.0157727 7 10 13
1.63813 -0.719343 -0.00411657 9 12 15
1.64123 -0.721394 0.00759714 20 29 33
1.64433 -0.723446 0.0193681 50 57 73
1.6394 -0.721967 0.0310445 56 64 78
1.6425 -0.72402 0.0428726 61 69 83
1.64559 -0.726075 0.0547584 64 73 84
1.64968 -0.728573 0.0667419 64 71 82
1.65276 -0.730631 0.0787494 63 70 81
1.66383 -0.73623 0.0912532 66 73 84
1.67589 -0.742275 0.103991 70 77 86
1.69194 -0.750097 0.117192 68 75 86
1.69897 -0.753937 0.129949 70 77 86
1.70301 -0.756451 0.142571 73 79 86
1.70206 -0.75675 0.154811 78 80 90
1.69612 -0.754832 0.166562 77 83 90
1.69517 -0.75513 0.178766 64 67 75
1.69024 -0.753653 0.190521 32 30 36
1.68929 -0.75395 0.202697 55 49 60
1.68436 -0.752471 0.214366 66 68 78
1.68342 -0.752768 0.226512 74 79 90
1.68247 -0.753065 0.238659 73 80 91
1.68549 -0.75514 0.251398 71 80 89
1.68454 -0.755438 0.263574 71 78 87
1.69252 -0.759741 0.277211 73 81 88
1.69553 -0.761821 0.290129 69 78 87
1.70745 -0.767911 0.304695 68 77 86
1.71143 -0.770441 0.317976 72 81 92
1.71937 -0.774756 0.332094 73 81 95
1.72235 -0.776845 0.345349 79 88 99
1.73126 -0.781611 0.359894 38 41 49
1.73423 -0.783703 0.373307 5 7 12
1.74312 -0.788476 0.388096 4 7 15
1.75595 -0.795038 0.403936 11 14 22
1.75495 -0.79535 0.416699 0 3 6
1.74903 -0.793427 0.428256 1 6 9
1.73425 -0.787477 0.437506 0 9 13
1.71949 -0.781523 0.446554 0 11 24
1.70966 -0.777802 0.456716 6 18 42
1.70377 -0.775868 0.467829 20 41 70
1.69396 -0.77214 0.477761 23 45 77
1.69299 -0.772442 0.490123 9 31 65
1.69694 -0.774986 0.503942 8 30 62
1.6999 -0.777082 0.517534 12 32 64
1.70383 -0.779629 0.53149 17 39 71
1.71657 -0.786216 0.548334 17 39 71
1.73812 -0.796848 0.568259 15 38 74
1.76551 -0.810183 0.590479 12 37 66
1.78895 -0.821731 0.611777 6 13 22
1.80748 -0.831041 0.631725 3 12 11
1.8211 -0.838109 0.650215 9 13 12
1.8308 -0.843383 0.667497 24 31 35
1.84049 -0.848662 0.684937 39 48 52
1.83943 -0.848992 0.69846 48 56 58
1.83838 -0.849323 0.711983 55 64 63
1.83732 -0.849653 0.725507 58 67 66
1.84114 -0.852237 0.74099 62 66 71
1.84008 -0.852568 0.754549 63 69 69
1.83902 -0.852899 0.768108 61 67 66
1.84283 -0.855487 0.783734 68 74 73
1.8476 -0.858527 0.799853 65 69 69
1.85721 -0.863828 0.818195 66 70 70
1.86099 -0.866422 0.834087 64 69 72
1.85992 -0.866758 0.84784 61 69 71
1.85885 -0.867094 0.861593 54 62 64
1.85778 -0.86743 0.875346 36 38 43
1.85187 -0.865503 0.886781 35 37 42
1.84499 -0.863123 0.897674 38 41 44
1.82846 -0.856213 0.903701 39 44 47
1.82257 -0.854279 0.914835 42 47 50
1.81572 -0.851891 0.925405 46 46 47
1.80984 -0.849954 0.936389 44 46 51
1.79818 -0.845294 0.944261 45 47 52
1.79232 -0.843352 0.955058 31 44 57
1.78164 -0.83914 0.963179 36 67 101
1.78543 -0.841734 0.979077 17 53 91
1.78439 -0.842058 0.992371 18 49 88
1.78816 -0.844655 1.00838 13 45 82
1.80251 -0.852253 1.0305 16 47 81
1.82163 -0.862131 1.05564 26 41 60
1.84746 -0.8752 1.08502 26 26 36
1.8675 -0.885548 1.11138 24 28 33
1.88271 -0.893628 1.13517 17 21 20
1.89312 -0.899437 1.15627 17 22 25
1.89202 -0.899783 1.17043 17 21 20
1.89666 -0.902864 1.18819 22 31 22
1.89555 -0.903211 1.2024 28 33 29
1.90018 -0.906294 1.22029 26 25 22
1.91054 -0.912118 1.24199 26 26 20
1.92089 -0.917946 1.26386 24 24 18
1.93694 -0.926518 1.28973 21 21 15
1.94821 -0.932812 1.31263 25 23 23
1.95279 -0.935912 1.33117 28 27 24
1.97643 -0.948156 1.36294 27 27 21
1.98765 -0.954465 1.38645 28 28 22
1.99219 -0.957576 1.40545 35 33 27
1.96629 -0.946043 1.40281 28 25 29
1.94707 -0.937706 1.4046 34 30 30
1.92217 -0.926613 1.40196 33 29 29
1.89825 -0.915971 1.39966 28 24 24
1.88005 -0.90807 1.40126 27 27 28
1.86756 -0.902914 1.40689 26 43 57
1.86077 -0.900507 1.41668 32 60 88
1.85494 -0.898556 1.42711 15 42 73
1.84816 -0.896145 1.43673 15 42 73
1.83099 -0.888679 1.4381 15 42 73
1.82423 -0.886262 1.44747 15 42 73
1.81843 -0.884302 1.45751 15 42 73
1.82208 -0.886938 1.47513 15 42 73
1.83233 -0.892795 1.49823 15 42 73
1.84162 -0.898197 1.52071 15 42 73
1.8509 -0.903602 1.54336 15 42 73
1.86676 -0.912235 1.57172 15 42 73
1.88261 -0.920874 1.60033 15 42 73
1.89843 -0.92952 1.6292 15 42 73
1.92647 -0.944165 1.66893 15 42 73
1.95541 -0.959281 1.70992 15 42 73
1.98525 -0.974871 1.7522 15 42 73
2.00942 -0.987703 1.78994 15 42 73
2.02136 -0.994542 1.81709 15 42 73
2.02672 -0.998152 1.83849 15 42 73
2.03208 -1.00177 1.85999 15 42 73
2.02431 -0.99891 1.86948 15 42 73
2.01655 -0.996051 1.87887 15 42 73
2.01534 -0.996429 1.89432 15 42 73
2.02068 -1.00005 1.91597 15 42 73
2.02602 -1.00366 1.93772 15 42 73
2.02481 -1.00405 1.95326 15 42 73
2.01706 -1.00118 1.96245 15 42 73
2.00279 -0.995072 1.96513 15 42 73
1.98295 -0.986175 1.96208 15 42 73
1.96219 -0.976807 1.95781 15 42 73
1.94891 -0.971144 1.96073 15 42 73
1.93564 -0.965477 1.96347 15 42 73
1.9289 -0.963055 1.97268 15 42 73
1.92124 -0.960167 1.98084 15 42 73
1.92008 -0.960529 1.99566 15 42 73
1.93099 -0.966935 2.02313 15 42 73
1.95395 -0.97939 2.06352 15 42 73
1.97781 -0.99232 2.10527 15 42 73
2.00905 -1.00898 2.15536 15 42 73
2.02729 -1.01914 2.19193 15 42 73
2.04643 -1.02977 2.22981 15 42 73
2.07295 -1.04414 2.27614 15 42 73
2.10035 -1.05898 2.32392 15 42 73
2.12033 -1.0701 2.3639 15 42 73
2.13382 -1.07796 2.39695 15 42 73
2.14729 -1.08583 2.43023 15 42 73
2.15337 -1.08998 2.45533 15 42 73
2.16773 -1.09832 2.49007 15 42 73
2.17379 -1.10247 2.51546 15 42 73
1.99444 -0.817796 -1.22544 48 62 99
1.98811 -0.815964 -1.20868 46 66 100
1.98074 -0.813698 -1.19135 37 52 92
1.97969 -0.814027 -1.17787 40 63 99
1.97337 -0.812191 -1.16129 34 61 94
1.97759 -0.814686 -1.15091 31 60 93
1.99336 -0.821952 -1.14711 37 57 101
2.01016 -0.829656 -1.14368 36 55 103
2.0259 -0.836933 -1.13941 47 66 107
2.03112 -0.839876 -1.12908 54 72 116
2.03003 -0.840215 -1.1152 48 66 110
2.02266 -0.837948 -1.09791 50 74 114
2.01005 -0.833505 -1.0779 55 78 114
2.00375 -0.831668 -1.06137 66 88 122
2.00268 -0.832003 -1.04766 67 81 118
2.00161 -0.832338 -1.03394 68 80 122
2.00577 -0.834849 -1.02289 68 82 124
1.99947 -0.833008 -1.00651 69 83 125
1.99213 -0.83073 -0.989674 70 89 125
1.98585 -0.828885 -0.973441 70 88 127
1.99 -0.831398 -0.962326 71 87 124
2.00041 -0.83653 -0.954124 67 85 124
2.0108 -0.841665 -0.945764 73 91 130
2.02223 -0.847241 -0.93773 73 89 126
2.02635 -0.849765 -0.926192 73 89 126
2.02006 -0.847921 -0.909895 73 89 126
2.01897 -0.848261 -0.895977 75 88 128
2.01165 -0.845978 -0.879332 82 96 133
2.01057 -0.846317 -0.865457 81 96 131
2.00949 -0.846656 -0.851583 80 98 128
2.01463 -0.849622 -0.840305 68 84 114
2.01873 -0.852151 -0.828516 79 94 127
2.03009 -0.857749 -0.819586 74 93 129
2.03418 -0.860283 -0.807603 78 95 130
2.04551 -0.865889 -0.798378 73 89 126
2.05683 -0.871498 -0.788981 77 93 130
2.06813 -0.877111 -0.779413 75 93 132
2.07322 -0.880095 -0.767375 76 94 133
2.0783 -0.883081 -0.755252 78 94 131
2.07717 -0.883434 -0.740832 75 91 128
2.06985 -0.881149 -0.724245 70 86 123
2.06254 -0.878862 -0.707744 69 86 121
2.06143 -0.879213 -0.69341 71 91 123
2.06649 -0.882203 -0.681115 74 94 128
2.07155 -0.885195 -0.668733 77 92 132
2.08278 -0.890832 -0.658218 73 89 126
2.094 -0.896473 -0.64753 82 98 135
2.09286 -0.896829 -0.632939 77 96 132
2.08556 -0.89454 -0.616524 78 94 131
2.07826 -0.892249 -0.600195 78 92 129
2.07097 -0.889957 -0.583952 76 93 128
1.99185 -0.856763 -0.548031 75 90 130
1.66461 -0.716682 -0.446608 75 90 130
1.64013 -0.706806 -0.428806 77 92 132
1.62797 -0.702225 -0.414464 79 95 132
1.62298 -0.700735 -0.402056 78 91 131
1.618 -0.699243 -0.389704 81 95 132
1.61712 -0.69952 -0.378368 79 94 134
1.61215 -0.698027 -0.366103 80 94 131
1.60411 -0.695204 -0.35322 141 121 141
1.60732 -0.69725 -0.342834 163 127 127
1.6095 -0.698856 -0.332179 110 89 86
1.61678 -0.702679 -0.322499 123 107 109
1.6159 -0.702956 -0.311134 149 133 135
1.61501 -0.703234 -0.299769 134 123 124
1.61005 -0.701736 -0.287676 124 113 115
1.60917 -0.702013 -0.27634 125 116 118
1.60828 -0.70229 -0.265003 122 113 115
1.6074 -0.702567 -0.253667 121 113 118
1.60245 -0.701066 -0.241717 118 111 113
1.61376 -0.706679 -0.232163 121 114 116
1.63215 -0.715411 -0.223408 118 110 108
1.65865 -0.72771 -0.215436 120 113 114
1.65773 -0.727996 -0.203713 119 115 115
1.64871 -0.724719 -0.191049 119 115 115
1.64375 -0.723222 -0.178942 118 114 115
1.64689 -0.725289 -0.167717 116 112 113
1.65408 -0.729142 -0.156818 117 110 112
1.66125 -0.732998 -0.145804 113 106 108
1.66539 -0.735517 -0.134431 100 98 104
1.66447 -0.735806 -0.122614 48 44 57
1.65042 -0.730288 -0.109923 14 10 11
1.64547 -0.728787 -0.0979591 7 10 13
1.64053 -0.727285 -0.0860524 8 11 14
1.63962 -0.72757 -0.0743862 7 10 13
1.63468 -0.726066 -0.0625657 5 9 9
1.62975 -0.72456 -0.0508025 5 10 13
1.62582 -0.7235 -0.0391211 6 10 10
1.62794 -0.725127 -0.0275847 6 10 10
1.63105 -0.727203 -0.0160152 7 10 13
1.6422 -0.732866 -0.0044099 9 12 15
1.6453 -0.734946 0.0073317 20 29 33
1.6484 -0.737028 0.0191306 50 57 73
1.64748 -0.737316 0.0309115 56 64 78
1.64656 -0.737604 0.0426927 61 69 83
1.65065 -0.740137 0.0546395 63 72 83
1.65373 -0.742223 0.0666177 64 71 82
1.66081 -0.746108 0.0788433 63 70 81
1.66789 -0.749996 0.0911836 66 73 84
1.67994 -0.756136 0.103948 70 77 86
1.687 -0.76003 0.116553 68 75 86
1.69104 -0.762577 0.129045 70 77 86
1.69808 -0.766477 0.141859 73 79 86
1.70211 -0.769027 0.154515 78 80 90
1.70913 -0.772932 0.167537 77 83 90
1.71315 -0.775487 0.180358 64 67 75
1.71617 -0.777592 0.19314 32 30 36
1.71123 -0.776089 0.205025 55 49 60
1.7053 -0.774134 0.216726 66 68 78
1.70036 -0.772628 0.228489 74 79 90
1.69543 -0.771121 0.240195 73 80 91
1.68555 -0.767353 0.251104 69 78 87
1.6846 -0.76765 0.263279 70 77 86
1.68365 -0.767948 0.275455 73 81 88
1.69162 -0.772317 0.289155 69 78 87
1.70354 -0.7785 0.30369 68 77 86
1.71545 -0.784688 0.318412 72 81 92
1.72338 -0.789068 0.332556 73 81 95
1.7323 -0.793905 0.347028 79 88 99
1.73527 -0.796025 0.360411 38 41 49
1.73923 -0.7986 0.374065 5 7 12
1.75206 -0.80526 0.389766 4 7 15
1.76488 -0.811925 0.405668 11 14 22
1.76881 -0.814508 0.419666 0 3 6
1.75401 -0.808464 0.429154 1 6 9
1.73431 -0.800143 0.437201 0 9 13
1.72446 -0.796361 0.447529 0 11 24
1.70479 -0.788028 0.455102 6 18 42
1.69989 -0.786512 0.466449 20 41 70
1.69008 -0.782719 0.476354 23 45 77
1.68912 -0.783021 0.488687 9 31 65
1.69209 -0.785144 0.502186 8 30 62
1.69995 -0.789546 0.517234 12 32 64
1.70781 -0.793952 0.532411 17 39 71
1.72055 -0.80064 0.549281 17 39 71
1.74307 -0.811895 0.569552 15 38 74
1.77046 -0.825439 0.591802 12 37 66
1.80368 -0.841733 0.616475 6 13 22
1.8222 -0.851189 0.636527 3 12 11
1.84265 -0.861565 0.657563 9 13 12
1.85722 -0.869208 0.676779 24 31 35
1.8669 -0.87457 0.69441 38 47 51
1.8707 -0.877192 0.709978 48 56 58
1.86963 -0.877528 0.723731 55 64 63
1.86856 -0.877864 0.737484 58 67 66
1.87333 -0.880947 0.753587 62 66 71
1.87225 -0.881284 0.767383 63 69 69
1.87118 -0.881621 0.781179 61 67 66
1.8701 -0.881958 0.794975 68 74 73
1.86903 -0.882296 0.808771 65 69 69
1.87281 -0.884926 0.824705 66 70 70
1.87173 -0.885264 0.838536 64 69 72
1.8658 -0.883307 0.850159 61 69 71
1.85891 -0.880888 0.86126 54 62 64
1.853 -0.878927 0.872732 36 38 43
1.84612 -0.876504 0.883669 35 37 42
1.83441 -0.871781 0.892167 38 41 44
1.82368 -0.867513 0.900985 39 44 47
1.81683 -0.865083 0.911599 42 47 50
1.81095 -0.863111 0.922619 46 46 47
1.8099 -0.863439 0.936064 44 46 51
1.80403 -0.861464 0.946976 49 51 56
1.79238 -0.856722 0.954736 31 44 57
1.79134 -0.857048 0.968066 36 67 101
1.7903 -0.857374 0.981396 17 53 91
1.78926 -0.8577 0.994725 18 49 88
1.79303 -0.860333 1.01077 13 45 82
1.80257 -0.865739 1.03018 21 52 86
1.82169 -0.875767 1.05531 26 41 60
1.84176 -0.886265 1.08131 26 26 36
1.86756 -0.899544 1.11105 24 28 33
1.87798 -0.905434 1.13194 17 21 20
1.88743 -0.910866 1.15241 17 22 25
1.89208 -0.913988 1.17009 17 21 20
1.89098 -0.914334 1.18425 22 31 22
1.89561 -0.917458 1.20205 28 33 29
1.90025 -0.920585 1.21994 26 25 22
1.9106 -0.926495 1.24164 26 26 20
1.92668 -0.935191 1.26729 24 24 18
1.94274 -0.943894 1.29319 21 21 15
1.954 -0.950282 1.31613 25 23 23
1.95858 -0.953426 1.33472 28 27 24
1.96982 -0.959823 1.35799 28 28 22
1.97533 -0.963436 1.37746 27 27 21
1.96751 -0.960547 1.38763 33 32 29
1.94257 -0.949287 1.38549 28 25 29
1.91766 -0.938018 1.38299 34 30 30
1.89373 -0.927206 1.38082 33 29 29
1.87552 -0.919178 1.38251 28 24 24
1.86303 -0.913937 1.38819 27 27 28
1.86193 -0.914281 1.40226 26 43 57
1.86084 -0.914625 1.41634 32 60 88
1.84932 -0.909842 1.4224 15 42 73
1.84255 -0.907386 1.43198 15 42 73
1.82537 -0.899797 1.4333 15 42 73
1.81956 -0.897802 1.44338 15 42 73
1.81282 -0.895338 1.45264 15 42 73
1.82214 -0.900811 1.4748 15 42 73
1.82672 -0.903952 1.49326 15 42 73
1.8313 -0.907095 1.51181 15 42 73
1.84625 -0.915383 1.53909 15 42 73
1.85552 -0.92087 1.56185 15 42 73
1.87137 -0.929637 1.59038 15 42 73
1.8872 -0.93841 1.61916 15 42 73
1.9143 -0.952807 1.65798 15 42 73
1.94325 -0.968152 1.69888 15 42 73
1.96652 -0.980697 1.73525 15 42 73
1.98414 -0.990438 1.76699 15 42 73
1.99609 -0.997373 1.79394 15 42 73
2.0071 -1.00384 1.82025 15 42 73
2.01902 -1.01079 1.84761 15 42 73
2.01782 -1.01117 1.86305 15 42 73
2.01662 -1.01154 1.8785 15 42 73
2.01541 -1.01192 1.89394 15 42 73
2.01421 -1.0123 1.90939 15 42 73
2.01955 -1.01597 1.93109 15 42 73
2.0118 -1.01305 1.94028 15 42 73
2.00406 -1.01014 1.94937 15 42 73
1.9898 -1.00392 1.95195 15 42 73
1.96996 -0.994881 1.9488 15 42 73
1.94456 -0.983005 1.93979 15 42 73
1.93687 -0.980072 1.94819 15 42 73
1.92361 -0.974309 1.95084 15 42 73
1.91688 -0.971842 1.95995 15 42 73
1.91572 -0.972203 1.97473 15 42 73
1.91457 -0.972564 1.98951 15 42 73
1.92549 -0.979062 2.01693 15 42 73
1.95402 -0.994537 2.06315 15 42 73
1.98437 -1.01097 2.1118 15 42 73
2.00912 -1.02458 2.15498 15 42 73
2.03477 -1.03867 2.19956 15 42 73
2.06039 -1.05277 2.24455 15 42 73
2.09429 -1.07113 2.29911 15 42 73
2.12169 -1.0862 2.34704 15 42 73
2.13519 -1.09418 2.37998 15 42 73
2.13389 -1.09459 2.39655 15 42 73
2.12522 -1.0912 2.40476 15 42 73
2.11656 -1.08781 2.41287 15 42 73
2.11527 -1.08821 2.42932 15 42 73
2.12873 -1.0962 2.46283 15 42 73
1.98923 -0.829198 -1.22253 48 62 99
1.98817 -0.829529 -1.209 46 66 100
1.9808 -0.827219 -1.19167 37 52 92
1.96922 -0.823146 -1.17193 40 63 99
1.96817 -0.823474 -1.15852 34 61 94
1.97765 -0.828207 -1.15123 31 60 93
1.99342 -0.835588 -1.14744 37 57 101
2.01022 -0.843415 -1.14401 36 55 103
2.02071 -0.848602 -1.13679 47 66 107
2.03118 -0.853793 -1.12941 54 72 116
2.0238 -0.851483 -1.11208 48 66 110
2.01748 -0.849613 -1.0954 50 74 114
2.01012 -0.8473 -1.07823 55 78 114
2.00904 -0.847636 -1.06448 66 88 122
2.00797 -0.847972 -1.05073 70 83 123
2.01841 -0.853173 -1.04292 68 80 122
2.01733 -0.853511 -1.02909 68 82 124
2.01625 -0.853849 -1.01526 69 83 125
2.00995 -0.851973 -0.99883 70 89 125
2.00888 -0.85231 -0.985034 70 88 127
2.0078 -0.852647 -0.971238 71 87 124
2.01194 -0.855201 -0.959931 67 85 124
2.01712 -0.8582 -0.949041 73 91 130
2.02229 -0.861201 -0.938067 75 91 128
2.01496 -0.858878 -0.921292 72 88 125
2.01387 -0.859217 -0.907417 73 89 126
2.01279 -0.859556 -0.893542 75 88 128
2.01171 -0.859895 -0.879667 82 96 133
2.01686 -0.862902 -0.868477 81 96 131
2.0272 -0.868134 -0.859402 80 98 128
2.03753 -0.87337 -0.85017 68 84 114
2.04266 -0.876384 -0.83865 79 94 127
2.04778 -0.879401 -0.827044 74 93 129
2.04667 -0.879747 -0.812882 78 95 130
2.05178 -0.882767 -0.801147 73 89 126
2.05689 -0.885789 -0.789326 77 93 130
2.06819 -0.891488 -0.779759 75 93 132
2.07328 -0.894516 -0.767723 76 94 133
2.07216 -0.894867 -0.753346 78 94 131
2.07724 -0.897897 -0.74118 75 91 128
2.06992 -0.895569 -0.724592 70 86 123
2.06261 -0.893239 -0.70809 69 86 121
2.06149 -0.89359 -0.693757 71 91 123
2.06656 -0.896623 -0.681462 74 94 128
2.0778 -0.902343 -0.671078 77 92 132
2.08903 -0.908067 -0.660522 73 89 126
2.10127 -0.914243 -0.650112 82 98 135
2.1063 -0.917288 -0.637337 77 96 132
2.09899 -0.914958 -0.620827 78 94 131
2.08449 -0.909489 -0.602326 78 92 129
2.0772 -0.907154 -0.586039 76 93 128
1.98576 -0.868032 -0.546672 75 90 130
1.64928 -0.721623 -0.442759 75 90 130
1.63608 -0.716517 -0.42801 77 92 132
1.62392 -0.711857 -0.413695 80 96 133
1.61894 -0.710337 -0.401315 78 91 131
1.61396 -0.708816 -0.388992 81 95 132
1.61308 -0.709092 -0.377684 79 94 134
1.60913 -0.708019 -0.365679 80 94 131
1.60825 -0.708295 -0.354393 141 121 141
1.60737 -0.708571 -0.343106 163 127 127
1.60955 -0.710198 -0.332453 110 89 86
1.60867 -0.710474 -0.321145 123 107 109
1.60779 -0.71075 -0.309837 149 133 135
1.61098 -0.71283 -0.299286 134 123 124
1.6101 -0.713107 -0.28795 124 113 115
1.61329 -0.715189 -0.277313 125 116 118
1.6124 -0.715467 -0.265948 122 113 115
1.61152 -0.715745 -0.254583 121 113 118
1.60657 -0.714215 -0.242604 121 114 116
1.61381 -0.718108 -0.232438 121 114 116
1.62408 -0.723359 -0.222574 118 110 108
1.63942 -0.730876 -0.213213 120 113 114
1.63852 -0.731159 -0.201625 119 115 115
1.64066 -0.7328 -0.190391 119 115 115
1.63671 -0.731725 -0.17845 118 114 115
1.63581 -0.732008 -0.166863 116 112 113
1.63491 -0.732292 -0.155275 117 110 112
1.64108 -0.735748 -0.14431 111 104 106
1.64422 -0.737846 -0.133 93 91 97
1.64331 -0.738131 -0.121333 44 40 53
1.63432 -0.734786 -0.109128 15 11 12
1.62636 -0.731891 -0.0970972 6 9 12
1.62142 -0.730357 -0.0853262 8 11 14
1.61649 -0.728821 -0.0736126 8 11 14
1.61559 -0.729102 -0.0621112 6 10 10
1.6147 -0.729383 -0.0506096 5 10 13
1.61783 -0.731484 -0.0392058 6 10 10
1.62095 -0.733586 -0.0277446 6 10 10
1.6311 -0.738876 -0.0162963 7 10 13
1.63823 -0.742804 -0.00468162 9 12 15
1.64937 -0.748557 0.00706491 20 29 33
1.65347 -0.751124 0.0189034 50 57 73
1.65254 -0.751412 0.0307203 56 64 78
1.65162 -0.751701 0.0425371 61 69 83
1.6507 -0.75199 0.054354 63 72 83
1.65379 -0.754104 0.0663316 64 71 82
1.65686 -0.756221 0.0783664 64 71 82
1.66394 -0.760165 0.0906766 66 73 84
1.671 -0.764113 0.103101 70 77 86
1.67007 -0.764406 0.115091 68 75 86
1.67413 -0.766986 0.12746 70 77 86
1.68516 -0.77277 0.140482 73 79 86
1.69319 -0.777185 0.153407 78 80 90
1.70919 -0.785267 0.16724 77 83 90
1.72616 -0.793812 0.181421 64 67 75
1.73415 -0.79824 0.194854 32 30 36
1.73317 -0.798545 0.207345 55 49 60
1.72325 -0.794723 0.218701 66 68 78
1.71831 -0.793191 0.230593 74 79 90
1.7084 -0.789364 0.241726 73 80 91
1.69851 -0.785533 0.25273 69 78 87
1.69358 -0.783996 0.264379 70 77 86
1.69659 -0.786133 0.277267 73 81 88
1.70852 -0.792408 0.291736 69 78 87
1.72142 -0.799147 0.306567 68 77 86
1.73431 -0.805892 0.321599 72 81 92
1.74224 -0.81034 0.335878 73 81 95
1.74125 -0.810649 0.348506 79 88 99
1.74027 -0.810957 0.361133 38 41 49
