ply
format ascii 1.0
comment pointcloud saved from PyCharm
element vertex 1263
property float32 x
property float32 y
property float32 z
property uchar blue
property uchar green
property uchar red
end_header
2.07158 0.844744 -0.749646 144 160 158
2.06765 0.841581 -0.731836 147 160 158
2.05703 0.835714 -0.71182 145 161 158
2.04638 0.829853 -0.692003 140 156 154
2.04906 0.829406 -0.676797 141 156 157
2.05173 0.828959 -0.661591 142 157 158
2.05441 0.828512 -0.646385 141 156 157
2.06379 0.830765 -0.633237 139 154 155
2.06648 0.830316 -0.617981 136 151 152
2.06916 0.829868 -0.602726 140 152 154
2.07185 0.829419 -0.58747 143 154 158
2.06779 0.826277 -0.570355 143 155 157
2.07047 0.82583 -0.555149 142 154 156
2.07315 0.825383 -0.539943 142 154 156
2.08259 0.827625 -0.526448 140 152 154
2.10561 0.835241 -0.516176 138 153 154
2.12189 0.840162 -0.503995 139 153 156
2.14597 0.848145 -0.493401 138 153 154
2.17108 0.856503 -0.482712 138 153 154
2.18846 0.861786 -0.470025 134 149 150
2.18347 0.858253 -0.452481 133 147 150
2.17943 0.855107 -0.435245 133 148 149
2.15975 0.845843 -0.415105 134 149 150
2.14882 0.84003 -0.396917 139 151 153
2.13001 0.831165 -0.377538 139 151 153
2.11899 0.825365 -0.359802 139 151 153
2.10794 0.819571 -0.342265 141 153 155
2.11062 0.819124 -0.327059 146 158 160
2.11329 0.818677 -0.311853 138 144 151
2.11597 0.81823 -0.296648 91 109 121
2.12556 0.82045 -0.282359 102 119 128
2.11441 0.814671 -0.265367 112 129 138
2.11015 0.811563 -0.249393 122 136 144
2.10687 0.808837 -0.233627 139 149 156
2.11547 0.810674 -0.219179 139 149 156
2.12508 0.812889 -0.204742 139 149 156
2.12775 0.812444 -0.189585 138 149 153
2.12345 0.809342 -0.173858 138 150 152
2.12013 0.806622 -0.158305 135 147 149
2.12278 0.80618 -0.143241 135 147 149
2.11144 0.800433 -0.127333 138 149 153
2.12108 0.802644 -0.11274 136 147 151
2.12372 0.802202 -0.097725 133 143 150
2.12636 0.801761 -0.0827103 135 145 152
2.129 0.801319 -0.0676956 133 144 148
2.13165 0.800878 -0.0526808 133 145 147
2.14738 0.805345 -0.037897 135 147 149
2.15004 0.804901 -0.0227902 132 144 146
2.1527 0.804457 -0.00768333 128 140 142
2.14222 0.799112 0.00737826 134 146 148
2.12463 0.791136 0.0221818 134 146 148
2.12725 0.790699 0.0370548 133 144 148
2.13595 0.79252 0.0520763 129 140 144
2.1599 0.79998 0.06766 132 143 147
2.17577 0.804423 0.0832299 133 144 148
2.19269 0.809237 0.09903 134 145 149
2.20251 0.811417 0.114657 138 150 152
2.2052 0.810967 0.129962 140 152 154
2.20074 0.807892 0.144797 141 151 153
2.19627 0.80482 0.159532 141 152 151
2.18461 0.799127 0.173599 140 151 150
2.18111 0.796437 0.188175 141 151 153
2.1622 0.788135 0.201232 141 151 153
2.15147 0.782834 0.214814 142 153 152
2.1479 0.780155 0.228979 144 154 156
2.1505 0.779721 0.24376 143 154 153
2.15929 0.781527 0.259284 142 153 151
2.1619 0.781091 0.274108 141 152 151
2.15831 0.778417 0.288103 140 149 148
2.15366 0.775373 0.301868 140 150 152
2.15003 0.772705 0.315686 136 146 148
2.15885 0.774507 0.331331 135 145 147
2.17495 0.778912 0.348226 134 144 146
2.19837 0.785915 0.366518 137 148 147
2.22183 0.79291 0.385094 132 144 146
2.23909 0.797667 0.402828 138 150 152
2.25639 0.802419 0.42076 140 151 150
2.2664 0.804567 0.437478 141 151 153
2.26177 0.801519 0.45137 141 152 151
2.2498 0.795879 0.463652 145 153 155
2.23779 0.790245 0.475735 143 152 151
2.22679 0.784988 0.487851 145 156 155
2.21471 0.779365 0.499545 142 153 152
2.21102 0.776708 0.512995 142 151 149
2.20626 0.773683 0.526108 142 151 149
2.20887 0.773247 0.540931 140 149 148
2.21148 0.772811 0.555755 140 149 148
2.22149 0.774959 0.572487 137 147 149
2.23046 0.776734 0.589038 142 150 152
2.24794 0.781456 0.607969 139 148 147
2.26438 0.785804 0.626804 137 148 147
2.26704 0.78536 0.64191 140 151 150
2.27715 0.787492 0.659173 138 148 150
2.27236 0.784472 0.672124 135 146 144
2.27501 0.784028 0.687231 140 151 149
2.27127 0.781379 0.700362 137 148 140
2.26643 0.778367 0.713072 135 149 144
2.24767 0.770586 0.721218 136 148 143
2.22243 0.760614 0.726977 140 151 150
2.21107 0.755417 0.737018 135 145 147
2.19967 0.750226 0.746874 137 148 146
2.20223 0.749799 0.761379 139 148 146
2.21124 0.751568 0.778157 140 149 147
2.22781 0.755895 0.797721 137 148 146
2.23039 0.755464 0.81236 138 147 145
2.22648 0.752842 0.824599 140 152 147
2.22905 0.752413 0.839196 140 150 145
2.23812 0.754173 0.856279 140 152 147
2.25479 0.758484 0.876395 143 154 146
2.27909 0.765339 0.899695 143 149 142
2.29583 0.769637 0.92023 142 148 141
2.29846 0.769197 0.935195 139 147 140
2.3011 0.768757 0.95016 141 153 148
2.30373 0.768317 0.965126 142 152 147
2.29873 0.765334 0.976844 145 153 146
2.30135 0.764895 0.99176 149 155 148
2.29741 0.762279 1.00381 150 156 149
2.30003 0.761842 1.01868 147 153 146
2.29497 0.758866 1.03011 147 154 145
2.291 0.756256 1.04194 147 152 148
2.2936 0.755822 1.05672 141 149 142
2.3028 0.757559 1.07458 141 149 142
2.31312 0.759655 1.09305 141 149 142
2.33007 0.763918 1.11478 141 149 142
2.34044 0.766007 1.13349 141 149 142
2.35082 0.768094 1.15229 148 156 149
2.35347 0.767651 1.16736 148 156 149
2.34836 0.764683 1.17853 148 156 149
2.34324 0.761718 1.1896 148 156 149
2.33145 0.756595 1.19716 148 156 149
2.32628 0.753637 1.20799 148 156 149
2.32889 0.753201 1.22281 148 156 149
2.3393 0.755283 1.24178 148 156 149
2.34192 0.754846 1.25665 148 156 149
2.35123 0.756564 1.27516 148 156 149
2.36168 0.758639 1.29436 148 156 149
2.37215 0.760711 1.31366 148 156 149
2.36695 0.757759 1.32429 148 156 149
2.36174 0.75481 1.33482 148 156 149
2.34977 0.749715 1.3414 148 156 149
2.33776 0.744625 1.3478 148 156 149
2.34036 0.744192 1.36253 148 156 149
2.35084 0.746262 1.3819 148 156 149
2.3602 0.747972 1.4007 148 156 149
2.35604 0.745393 1.41146 148 156 149
2.32135 0.733179 1.40369 147 155 148
2.23453 0.704569 1.36369 147 155 148
2.14184 0.674208 1.31908 147 155 148
2.07957 0.653504 1.29231 147 155 148
2.06483 0.647781 1.29463 147 155 148
2.07846 0.650961 1.3147 147 155 148
2.09781 0.655916 1.33854 147 155 148
2.12288 0.662642 1.36626 147 153 146
2.14345 0.667938 1.3913 147 153 146
2.15264 0.669677 1.4091 147 153 146
2.15499 0.669284 1.42246 147 153 146
2.15048 0.666764 1.43125 147 153 146
2.15282 0.666372 1.44456 147 153 146
2.16204 0.668106 1.46253 147 153 146
2.17587 0.671254 1.48371 148 154 147
2.19777 0.676874 1.51056 148 154 147
2.2059 0.678244 1.5281 148 154 147
2.2152 0.679965 1.5465 148 154 147
2.22336 0.681331 1.56418 148 154 147
2.22 0.679164 1.57376 148 154 147
2.2224 0.678764 1.58738 148 154 147
1.95926 0.900074 -1.94562 191 191 185
1.94919 0.893678 -1.91678 187 192 188
1.93908 0.887289 -1.88815 189 188 185
1.93498 0.883666 -1.86557 192 191 188
1.93172 0.880441 -1.84392 188 187 184
1.9345 0.879976 -1.82809 191 190 187
1.95029 0.885416 -1.82444 188 188 182
1.9861 0.8999 -1.83907 187 189 183
2.00286 0.905717 -1.83562 189 191 185
1.99877 0.902092 -1.81299 185 187 181
1.98767 0.895329 -1.78421 187 188 185
1.97741 0.888965 -1.75643 187 189 183
1.96712 0.882606 -1.72887 184 185 177
1.96992 0.882138 -1.71294 185 186 178
1.97272 0.88167 -1.69701 180 181 178
1.98168 0.883944 -1.68632 180 181 178
1.99153 0.886608 -1.67626 181 183 177
1.99435 0.886136 -1.66023 176 178 172
1.99011 0.882535 -1.63838 185 187 181
1.99293 0.882066 -1.6224 183 183 177
1.99574 0.881596 -1.60643 185 185 179
2.00564 0.884251 -1.59609 184 183 180
2.00846 0.883779 -1.58005 186 188 182
2.01128 0.883308 -1.56402 182 184 178
2.00699 0.879717 -1.54251 182 183 180
2.00357 0.876519 -1.5218 181 182 179
1.99923 0.872935 -1.50052 182 184 178
1.99577 0.869743 -1.48001 178 180 174
2.00482 0.872002 -1.46877 176 178 172
2.00761 0.871535 -1.4529 179 181 175
2.01758 0.874178 -1.44216 176 182 175
2.0132 0.870602 -1.42116 175 180 176
2.01599 0.870135 -1.40528 172 177 173
2.01248 0.866952 -1.38507 173 179 172
2.01527 0.866487 -1.36925 172 174 168
2.02438 0.868735 -1.35767 167 169 163
2.03441 0.871368 -1.34659 165 171 164
2.04355 0.873611 -1.3348 166 171 167
2.05362 0.876237 -1.3235 171 176 172
2.06371 0.87886 -1.31209 166 172 165
2.05926 0.875295 -1.29143 166 173 169
2.0548 0.871732 -1.27089 167 173 172
2.04393 0.865469 -1.24657 165 174 172
2.04033 0.862301 -1.22685 161 171 166
2.0358 0.858749 -1.20669 164 174 169
2.03217 0.855587 -1.18718 164 175 167
2.0276 0.852042 -1.16724 162 172 167
2.03035 0.851582 -1.15158 161 170 168
2.03311 0.851121 -1.13592 156 167 165
2.02942 0.847968 -1.11672 155 166 164
2.01834 0.841741 -1.09361 152 163 162
2.00814 0.835905 -1.07122 150 163 162
1.99791 0.830074 -1.04902 149 162 161
1.98764 0.824249 -1.02701 147 162 163
1.98383 0.821116 -1.00851 149 161 163
1.98649 0.820671 -0.993352 148 161 160
1.99567 0.822908 -0.981396 144 159 160
2.00486 0.825143 -0.96934 145 160 161
2.01407 0.827374 -0.957185 147 159 161
2.01023 0.824246 -0.938829 148 160 162
2.01292 0.823797 -0.923573 146 158 160
2.00905 0.820673 -0.905366 149 162 161
2.01173 0.820226 -0.89016 147 160 159
2.02754 0.825125 -0.880659 150 163 162
2.05654 0.83536 -0.876566 150 162 164
2.07997 0.843295 -0.869717 147 160 159
2.08272 0.842835 -0.854058 146 159 158
2.08548 0.842375 -0.838398 146 159 158
2.08162 0.839249 -0.820134 148 161 160
2.08437 0.83879 -0.804525 146 159 158
2.08049 0.835668 -0.786409 144 156 158
2.08323 0.835211 -0.770849 146 158 160
2.08597 0.834753 -0.755289 145 160 161
2.0811 0.831258 -0.737036 143 156 155
2.0705 0.825489 -0.716917 144 160 158
2.06654 0.822381 -0.699255 140 156 154
2.07592 0.824583 -0.686109 138 156 154
2.07195 0.821478 -0.668546 141 157 155
2.07465 0.821026 -0.653191 137 153 151
2.07735 0.820575 -0.637836 144 159 160
2.08005 0.820124 -0.622482 142 157 158
2.07603 0.817026 -0.605167 142 157 158
2.07199 0.813931 -0.587951 140 156 154
2.06794 0.810839 -0.570834 142 155 154
2.06386 0.807749 -0.553817 142 155 154
2.05977 0.804663 -0.536898 142 154 156
2.0692 0.806858 -0.523504 143 156 155
2.08542 0.811688 -0.511673 142 153 152
2.10846 0.819149 -0.501257 141 153 155
2.13253 0.826977 -0.490767 141 153 155
2.15665 0.834796 -0.479966 140 155 156
2.17401 0.839974 -0.467388 138 150 152
2.1768 0.839509 -0.451566 137 152 153
2.16495 0.83341 -0.432818 140 152 154
2.15306 0.827317 -0.414283 139 150 154
2.13429 0.818605 -0.394693 138 153 154
2.1233 0.812901 -0.376806 138 153 154
2.11227 0.807203 -0.359117 141 153 155
2.10121 0.801511 -0.341627 143 153 155
2.10388 0.801066 -0.32647 152 160 162
2.10655 0.80062 -0.311314 150 157 161
2.11611 0.802792 -0.297126 91 109 121
2.11879 0.802345 -0.28192 101 119 124
2.1017 0.794428 -0.26423 112 129 136
2.09051 0.788759 -0.247526 127 139 147
2.08621 0.785708 -0.23179 135 143 150
2.10272 0.790489 -0.218316 140 148 155
2.11827 0.794893 -0.204548 137 146 150
2.12789 0.797056 -0.190063 134 146 148
2.13056 0.79661 -0.174906 135 147 149
2.12625 0.79356 -0.159227 134 146 148
2.11593 0.788283 -0.143242 134 146 148
2.11158 0.78524 -0.127804 135 147 149
2.11421 0.7848 -0.112839 134 145 149
2.11685 0.78436 -0.0978739 136 148 150
2.11948 0.78392 -0.0829086 139 151 153
2.12212 0.78348 -0.0679433 135 145 147
2.13179 0.785634 -0.0531538 138 150 152
2.14148 0.787785 -0.0382648 138 150 152
2.14413 0.787342 -0.0232006 139 150 154
2.13972 0.78431 -0.00810933 135 146 150
2.12215 0.776473 0.00684027 133 144 148
2.09846 0.766428 0.0214444 133 144 148
2.09396 0.763411 0.0360115 133 144 148
2.11682 0.770363 0.051141 133 144 148
2.14582 0.779521 0.0667432 132 143 147
2.16879 0.786455 0.0824818 133 144 148
2.1857 0.79117 0.0982293 136 148 150
2.20265 0.795879 0.114175 137 148 147
2.21249 0.798005 0.129899 140 153 152
2.21519 0.797554 0.145254 141 153 155
2.21073 0.794529 0.16009 143 153 155
2.19909 0.788934 0.174259 144 154 156
2.18125 0.781142 0.1877 144 155 154
2.16234 0.772992 0.200763 144 155 153
2.14544 0.765583 0.213732 142 153 151
2.14083 0.762582 0.227747 142 153 151
2.14343 0.762149 0.242479 141 152 151
2.15943 0.766477 0.258817 141 152 150
2.16927 0.768603 0.274556 142 151 149
2.17189 0.768166 0.289429 142 151 150
2.16726 0.76517 0.303288 140 146 146
2.15639 0.759984 0.316136 138 149 148
2.15898 0.759551 0.330867 138 149 148
2.16885 0.761673 0.346762 140 150 152
2.18498 0.76598 0.363795 136 147 146
2.20114 0.770282 0.381012 140 151 150
2.21838 0.774942 0.398601 136 147 146
2.2346 0.779233 0.416194 144 153 151
2.24459 0.781335 0.432761 145 154 152
2.24726 0.780888 0.447967 145 154 152
2.23527 0.775352 0.460153 148 157 156
2.23163 0.772728 0.473923 144 153 151
2.22693 0.769744 0.487378 145 154 153
2.21485 0.764222 0.499075 145 151 151
2.21116 0.761607 0.512526 145 151 151
2.21378 0.76117 0.527399 144 153 152
2.22273 0.762906 0.543821 143 152 151
2.22535 0.762468 0.558737 143 152 151
2.23538 0.764562 0.57556 136 147 145
2.24543 0.766654 0.592481 142 152 154
2.2555 0.768742 0.609502 136 146 148
2.26452 0.770467 0.626328 138 149 148
2.2608 0.767857 0.63963 133 146 144
2.256 0.764888 0.65254 139 153 148
2.25119 0.761923 0.665351 139 152 150
2.25382 0.761483 0.680316 144 155 153
2.26393 0.763564 0.697584 140 151 149
2.26658 0.763123 0.712599 141 152 150
2.26173 0.760163 0.725211 142 151 149
2.24293 0.752532 0.733171 140 149 148
2.21764 0.742754 0.738702 142 151 150
2.19981 0.7355 0.746417 140 149 148
2.20236 0.735073 0.760922 140 149 148
2.21138 0.736799 0.777698 138 147 146
2.22795 0.741032 0.79726 145 152 148
2.23053 0.740602 0.811899 145 153 146
2.24067 0.742678 0.829338 142 152 147
2.24325 0.742246 0.844027 143 154 152
2.23826 0.739311 0.855817 142 154 149
2.25493 0.743527 0.875931 141 155 150
2.27163 0.747739 0.896229 141 154 152
2.28184 0.749802 0.9141 138 149 147
2.28446 0.749365 0.928973 142 151 149
2.28708 0.748928 0.943846 144 154 149
2.2897 0.74849 0.958719 141 148 144
2.29232 0.748053 0.973592 139 150 142
2.30149 0.749752 0.99129 143 153 148
2.31177 0.751804 1.00955 148 158 153
2.30674 0.748875 1.02112 151 154 146
2.30279 0.746304 1.03308 146 155 141
2.29113 0.74125 1.04147 142 151 142
2.28604 0.73833 1.05271 144 153 144
2.28864 0.737897 1.06744 144 153 144
2.30555 0.742073 1.08894 144 153 144
2.32249 0.746244 1.11061 144 153 144
2.34058 0.750763 1.13301 145 153 146
2.35759 0.754923 1.15507 145 153 146
2.35361 0.752357 1.16688 145 153 146
2.34851 0.749439 1.17806 145 153 146
2.33562 0.744052 1.18519 145 153 146
2.32381 0.739023 1.1927 145 153 146
2.31197 0.734 1.20002 145 153 146
2.31457 0.733567 1.21476 141 148 139
2.33164 0.737716 1.23717 141 148 139
2.34206 0.739746 1.25618 141 148 139
2.34468 0.739308 1.27105 141 148 139
2.354 0.740982 1.2896 141 148 139
2.36446 0.743005 1.30885 141 148 139
2.35925 0.740105 1.31943 141 148 139
2.3473 0.735101 1.32611 141 147 140
2.32857 0.727996 1.32876 141 147 140
2.31655 0.723004 1.33503 141 147 140
2.31124 0.72012 1.34504 141 147 140
2.32844 0.724248 1.3682 141 147 140
2.33102 0.723817 1.38284 141 147 140
2.30537 0.714638 1.38057 140 146 139
2.24576 0.694976 1.35746 140 146 139
2.15772 0.666598 1.31631 140 146 139
2.07174 0.638952 1.27543 140 146 139
2.01846 0.621463 1.25386 140 146 139
1.99911 0.614463 1.25295 140 146 139
2.0013 0.614096 1.26542 140 146 139
2.01374 0.616866 1.28443 140 148 141
2.01594 0.616498 1.29696 140 148 141
2.02385 0.61787 1.3132 140 148 141
2.03177 0.61924 1.3295 140 148 141
2.03399 0.618869 1.34211 140 148 141
2.04079 0.619888 1.35776 140 148 141
2.04874 0.621253 1.37424 140 148 141
2.0567 0.622616 1.39078 142 150 143
2.07041 0.625711 1.41131 142 150 143
2.08989 0.630535 1.43593 142 150 143
2.10366 0.63362 1.45678 142 150 143
2.1117 0.634971 1.47375 142 150 143
2.11399 0.634589 1.48674 142 150 143
2.1105 0.632478 1.49564 142 150 143
2.10701 0.630369 1.50447 144 151 147
1.95941 0.883687 -1.94613 187 188 185
1.94934 0.877399 -1.91729 184 189 185
1.93923 0.871118 -1.88865 189 190 187
1.93512 0.867552 -1.86607 190 192 186
1.93187 0.864377 -1.84441 191 191 185
1.94071 0.866619 -1.83432 189 189 183
1.97039 0.878134 -1.8436 189 189 183
2.00015 0.889636 -1.85245 191 192 184
2.01693 0.895334 -1.84889 191 192 184
2.01286 0.891764 -1.82615 190 191 183
1.98783 0.878941 -1.78472 186 185 177
1.97058 0.869601 -1.75073 188 189 181
1.96027 0.863353 -1.72322 185 185 179
1.95693 0.860191 -1.70201 184 183 180
1.96586 0.86242 -1.69148 183 182 179
1.97568 0.86503 -1.68159 181 181 181
1.99168 0.870328 -1.67677 183 183 183
1.9945 0.869857 -1.66073 182 182 182
1.99732 0.869385 -1.6447 184 183 180
2.00014 0.868914 -1.62866 183 185 179
2.00297 0.868443 -1.61263 181 183 177
2.00579 0.867971 -1.59659 182 184 178
2.00861 0.8675 -1.58056 181 182 179
2.01143 0.867029 -1.56452 181 182 179
2.01426 0.866557 -1.54849 182 183 180
2.00371 0.860348 -1.5223 180 181 178
1.99314 0.854144 -1.49633 179 181 175
1.98877 0.850622 -1.4752 180 182 176
1.99155 0.850158 -1.45944 179 182 174
1.99432 0.849695 -1.44367 180 183 175
1.9971 0.849232 -1.42791 176 178 172
2.00706 0.851819 -1.41722 168 176 169
2.00265 0.848305 -1.39638 171 177 170
2.00542 0.847841 -1.38061 173 179 172
2.01542 0.850423 -1.36975 174 176 170
2.02452 0.852621 -1.35817 163 168 164
2.02732 0.852155 -1.3423 162 170 163
2.03736 0.854729 -1.33116 164 175 167
2.04651 0.856919 -1.31933 168 178 173
2.05659 0.859486 -1.30797 170 178 171
2.06669 0.86205 -1.2965 165 176 168
2.06952 0.861577 -1.28041 165 176 168
2.07874 0.863757 -1.26821 165 176 168
2.07519 0.860631 -1.24823 165 176 168
2.0707 0.85713 -1.2278 166 176 171
2.05979 0.850982 -1.20373 166 176 171
2.04884 0.844842 -1.17988 166 176 171
2.03785 0.838707 -1.15625 159 168 166
2.02682 0.832578 -1.13282 152 163 161
2.01575 0.826456 -1.10961 152 162 164
2.00557 0.820718 -1.08711 149 159 161
1.98889 0.812345 -1.06135 153 166 165
1.97216 0.803981 -1.0359 147 163 161
1.9563 0.796003 -1.01122 146 162 160
1.95894 0.795563 -0.996256 150 163 162
1.96807 0.797757 -0.984542 148 161 160
1.9828 0.802205 -0.975472 150 163 162
1.99849 0.807023 -0.966669 149 162 161
2.00769 0.809206 -0.954565 151 161 156
2.01037 0.808757 -0.939309 150 159 158
2.01306 0.808309 -0.924054 148 157 161
2.00919 0.805235 -0.905845 149 158 162
2.01187 0.804788 -0.890639 148 159 163
2.02112 0.806963 -0.878287 146 157 161
2.04353 0.814378 -0.871445 145 156 155
2.06694 0.822158 -0.8647 148 161 160
2.07627 0.824318 -0.851845 148 160 162
2.08562 0.826476 -0.838892 146 158 160
2.08177 0.823401 -0.820626 144 157 156
2.08452 0.822942 -0.805016 147 160 159
2.08064 0.819871 -0.786899 148 161 160
2.07579 0.816429 -0.768531 147 160 159
2.07852 0.815974 -0.753027 146 159 158
2.06793 0.810302 -0.732807 143 156 155
2.06398 0.807243 -0.715094 143 156 155
2.06669 0.806792 -0.699739 141 157 155
2.07607 0.808944 -0.686594 146 159 158
2.07878 0.808491 -0.67119 144 160 158
2.08149 0.808038 -0.655785 138 154 152
2.0775 0.804986 -0.63832 138 154 152
2.0802 0.804534 -0.622965 141 157 155
2.07618 0.801487 -0.605649 141 156 157
2.07214 0.798442 -0.588431 141 156 157
2.06134 0.792807 -0.56945 138 154 152
2.05725 0.78977 -0.552481 140 153 152
2.05412 0.787105 -0.535862 144 155 154
2.06257 0.788882 -0.522267 141 154 153
2.07878 0.793612 -0.510489 142 155 154
2.09503 0.798337 -0.498513 142 155 154
2.11811 0.805641 -0.487903 140 153 152
2.14222 0.813305 -0.477213 140 152 154
2.15178 0.815428 -0.463069 140 152 154
2.16233 0.817916 -0.449029 142 154 156
2.15729 0.814507 -0.431751 141 153 155
2.14637 0.808892 -0.413457 140 152 154
2.13443 0.802915 -0.39518 140 152 154
2.12344 0.797312 -0.37729 140 152 154
2.11928 0.794288 -0.360767 140 152 154
2.10823 0.788695 -0.343223 144 154 156
2.10402 0.785678 -0.326948 152 160 162
2.10669 0.785232 -0.311791 138 148 155
2.10936 0.784787 -0.296635 90 107 116
2.11202 0.784341 -0.281479 102 119 126
2.10185 0.779134 -0.264704 113 127 135
2.07778 0.768806 -0.246471 124 139 145
2.07347 0.765808 -0.230826 135 145 152
2.08302 0.767932 -0.216725 140 151 155
2.1055 0.774804 -0.203774 135 146 150
2.12107 0.779111 -0.189917 140 151 155
2.12373 0.778667 -0.17481 134 145 149
2.12639 0.778223 -0.159703 135 146 150
2.11607 0.773039 -0.143715 135 147 149
2.11172 0.770046 -0.128275 136 148 150
2.11435 0.769606 -0.11331 136 148 150
2.11699 0.769166 -0.0983451 135 147 149
2.11962 0.768726 -0.0833799 140 150 152
2.12226 0.768286 -0.0684146 138 150 152
2.13193 0.77039 -0.0536267 136 148 150
2.13457 0.769949 -0.0386119 135 147 149
2.13722 0.769507 -0.023597 141 151 153
2.13279 0.766527 -0.00855404 138 148 150
2.10208 0.754122 0.00631099 134 146 148
2.08544 0.746804 0.0208502 133 145 147
2.08801 0.746375 0.0354471 134 146 148
2.10986 0.752823 0.0505055 134 146 148
2.13885 0.761795 0.0660524 135 147 149
2.15572 0.766417 0.0815062 136 147 151
2.16548 0.768505 0.0968397 138 149 153
2.18139 0.772757 0.112588 140 150 152
2.19834 0.777364 0.12858 138 149 148
2.20818 0.77944 0.144303 142 153 152
2.21088 0.77899 0.159608 143 154 153
2.19923 0.773496 0.17378 142 153 152
2.18139 0.765848 0.187226 143 154 153
2.16967 0.760367 0.200959 143 154 153
2.15174 0.752735 0.21388 144 155 153
2.14818 0.750142 0.228048 152 163 161
2.15696 0.751863 0.243527 146 157 156
2.16679 0.75394 0.259215 143 154 153
2.18284 0.758168 0.275784 145 154 153
2.18548 0.757728 0.29075 146 155 154
2.18086 0.754779 0.304702 145 154 153
2.17001 0.749684 0.317645 142 151 150
2.16639 0.7471 0.331515 146 155 153
2.16172 0.744161 0.345135 142 151 150
2.16431 0.743728 0.359866 146 155 153
2.17419 0.745797 0.375858 147 156 154
2.19036 0.750005 0.393073 144 153 151
2.21386 0.756707 0.411831 145 154 153
2.23009 0.760903 0.429463 148 157 156
2.23275 0.760459 0.44457 145 154 153
2.23541 0.760014 0.459677 144 153 152
2.23178 0.757434 0.473448 143 151 153
2.22707 0.7545 0.486905 140 150 152
2.21499 0.749079 0.498605 142 152 154
2.2113 0.746507 0.512057 142 154 156
2.21392 0.74607 0.526931 142 152 154
2.23026 0.750249 0.545158 143 153 155
2.24029 0.752293 0.561979 144 156 158
2.25668 0.756462 0.580531 148 156 158
2.26676 0.758499 0.597593 141 152 151
2.26943 0.758053 0.612749 142 153 152
2.26466 0.755129 0.625852 148 157 155
2.26094 0.752562 0.639156 140 149 147
2.2487 0.747169 0.649914 142 153 151
2.23748 0.742135 0.660789 137 149 144
2.2401 0.741698 0.675662 142 153 152
2.2566 0.745849 0.69481 140 151 150
2.2742 0.750348 0.714477 137 148 146
2.27685 0.749905 0.729542 137 149 144
2.257 0.742063 0.737255 141 147 146
2.23924 0.734933 0.745384 138 147 146
2.22036 0.72746 0.752881 138 149 148
2.22293 0.72703 0.76752 140 149 147
2.23305 0.72906 0.784808 144 150 149
2.24965 0.733195 0.804509 143 147 147
2.25872 0.734868 0.821645 144 150 149
2.26133 0.734432 0.836468 142 148 147
2.26394 0.733996 0.851292 142 152 147
2.26005 0.731457 0.863633 142 153 145
2.26265 0.731023 0.878414 142 150 143
2.27937 0.735139 0.898758 141 150 141
2.28198 0.734702 0.913632 141 152 151
2.2846 0.734265 0.928505 145 146 143
2.2796 0.731381 0.940233 146 151 147
2.28984 0.73339 0.958251 142 149 145
2.29246 0.732953 0.973124 139 148 146
2.30928 0.73705 0.994113 144 150 149
2.31192 0.73661 1.00908 145 152 148
2.30688 0.733732 1.02065 145 151 150
2.28099 0.72424 1.02278 145 147 141
2.26932 0.719283 1.03103 138 146 139
2.25101 0.712245 1.03606 143 154 146
2.25356 0.711819 1.05056 143 154 146
2.27705 0.717992 1.07495 143 154 146
2.30168 0.724505 1.10013 143 154 146
2.32526 0.730662 1.12506 143 154 146
2.3511 0.737505 1.15134 143 154 146
2.35375 0.737062 1.16641 143 154 146
2.34865 0.734195 1.17758 143 154 146
2.32911 0.726832 1.18135 143 154 146
2.30952 0.719476 1.18483 143 154 146
2.29766 0.714549 1.19206 138 149 141
2.30024 0.714119 1.2067 138 149 141
2.31061 0.716105 1.22548 138 149 141
2.31989 0.717744 1.24375 138 149 141
2.337 0.721794 1.26635 138 149 141
2.33961 0.721358 1.28117 138 149 141
2.34222 0.720923 1.296 138 149 141
2.33026 0.716012 1.30268 139 149 144
2.31827 0.711106 1.30918 139 149 144
2.30626 0.706206 1.31549 139 149 144
2.29533 0.701655 1.32227 139 149 144
2.29 0.698826 1.33215 139 149 144
2.27226 0.692225 1.33465 139 149 144
2.2477 0.683573 1.33288 139 149 144
2.21067 0.671161 1.32334 139 149 144
2.14981 0.651569 1.29897 139 149 144
2.0809 0.629605 1.26897 139 149 144
2.02089 0.610403 1.24365 139 149 144
1.98682 0.59909 1.23375 139 149 144
1.97311 0.59394 1.2362 139 149 144
1.97528 0.593579 1.24851 139 149 144
1.982 0.594582 1.26372 141 149 142
1.98417 0.594219 1.27606 141 149 142
1.99204 0.595561 1.29209 141 149 142
1.99993 0.596901 1.3082 141 149 142
2.00211 0.596536 1.32061 141 149 142
2.0043 0.596171 1.33302 141 149 142
2.01106 0.597167 1.3485 138 149 141
2.01898 0.5985 1.36481 138 149 141
2.03151 0.601191 1.38432 138 149 141
2.0452 0.604217 1.40475 138 149 141
2.05778 0.606899 1.42452 138 149 141
2.06576 0.608222 1.44121 138 149 141
2.06224 0.606154 1.44986 138 149 141
2.0587 0.604089 1.45845 140 151 143
2.06092 0.603717 1.47108 140 151 143
1.96645 0.870344 -1.95347 192 192 186
1.95638 0.864162 -1.92457 188 188 188
1.95231 0.860648 -1.90176 187 187 187
1.94823 0.857137 -1.87906 186 186 186
1.94499 0.85401 -1.8573 188 189 186
1.94779 0.853541 -1.84137 189 190 187
1.97054 0.861797 -1.84411 192 191 188
1.99335 0.870043 -1.84653 191 191 185
2.01013 0.875628 -1.84303 189 189 183
2.00604 0.872117 -1.82034 191 190 187
1.99496 0.865582 -1.7915 187 186 183
1.97073 0.85338 -1.75123 185 185 179
1.96042 0.847239 -1.72372 184 185 177
1.96321 0.846772 -1.70785 183 184 181
1.966 0.846306 -1.69198 183 182 179
1.97583 0.848859 -1.68209 187 187 181
1.98479 0.851031 -1.67134 182 182 176
2.0017 0.856594 -1.66711 185 184 181
2.01071 0.858758 -1.6561 185 184 181
2.00736 0.855647 -1.63492 183 182 179
2.0102 0.855174 -1.61883 181 182 174
2.01303 0.854701 -1.60274 180 183 175
2.01586 0.854228 -1.58665 179 183 172
2.02491 0.856386 -1.5754 180 182 176
2.02152 0.853282 -1.55447 185 186 183
2.01723 0.849806 -1.53296 185 186 183
2.00667 0.843708 -1.50688 180 182 176
1.99607 0.837615 -1.481 181 181 175
1.9917 0.834152 -1.45993 182 182 176
1.9882 0.831067 -1.43963 178 179 176
1.99097 0.830605 -1.42391 178 179 176
1.99373 0.830143 -1.40819 178 179 176
2.0028 0.832299 -1.39687 174 175 172
2.00557 0.831835 -1.38111 178 180 174
2.01556 0.834359 -1.37025 176 178 172
2.02467 0.836507 -1.35867 163 168 164
2.0347 0.839025 -1.34759 160 166 165
2.03751 0.838557 -1.33166 164 170 169
2.04666 0.840697 -1.31983 168 175 171
2.05674 0.843207 -1.30848 166 172 171
2.06684 0.845713 -1.29701 164 171 167
2.08334 0.850821 -1.28937 160 166 165
2.09349 0.853319 -1.27763 160 169 167
2.09635 0.852841 -1.26138 159 170 168
2.08457 0.846421 -1.23644 158 167 165
2.07368 0.840379 -1.21227 161 170 168
2.0554 0.831375 -1.18408 161 170 168
2.04442 0.825346 -1.16039 158 167 165
2.02696 0.81673 -1.13331 157 168 166
2.0159 0.810716 -1.11009 153 164 162
1.99926 0.802487 -1.08409 151 162 161
1.97611 0.791677 -1.05493 150 163 162
1.96028 0.783837 -1.03006 149 162 161
1.94996 0.778223 -1.00834 146 162 160
1.94703 0.775568 -0.990595 149 162 161
1.95521 0.777346 -0.97851 150 163 162
1.98294 0.786867 -0.975948 148 160 162
2.00515 0.794166 -0.970301 147 159 161
2.01436 0.796297 -0.958149 151 162 161
2.02359 0.798425 -0.945898 150 161 160
2.02629 0.797973 -0.930543 150 161 160
2.02899 0.797522 -0.915189 148 160 162
2.02513 0.794497 -0.896928 149 162 161
2.02783 0.794047 -0.881623 148 161 160
2.04368 0.798738 -0.871931 148 161 160
2.05297 0.800855 -0.859283 147 160 159
2.06983 0.805903 -0.84963 147 160 159
2.07917 0.808012 -0.836727 147 160 159
2.0753 0.804988 -0.81851 148 161 160
2.07048 0.801601 -0.800026 149 160 159
2.06657 0.798583 -0.782014 148 159 158
2.06266 0.795568 -0.764101 149 160 159
2.05872 0.792557 -0.746287 149 160 159
2.06142 0.792105 -0.730932 148 161 160
2.05746 0.789098 -0.713267 147 160 158
2.06016 0.788648 -0.697962 144 157 156
2.07621 0.793304 -0.687079 144 160 158
2.08562 0.795403 -0.673837 144 157 156
2.08164 0.792399 -0.656271 144 157 156
2.07764 0.789397 -0.638804 146 159 158
2.07363 0.786398 -0.621436 142 158 156
2.06959 0.783402 -0.604167 140 155 156
2.07228 0.782954 -0.588912 139 154 155
2.06822 0.779962 -0.571792 140 155 156
2.0709 0.779515 -0.556586 142 155 154
2.07357 0.779068 -0.54138 142 155 154
2.07625 0.778621 -0.526174 144 156 158
2.09248 0.783248 -0.5143 146 156 158
2.10196 0.785334 -0.500611 146 156 158
2.11826 0.789951 -0.48839 139 151 153
2.12778 0.79203 -0.474454 142 154 156
2.1383 0.794467 -0.460627 140 153 152
2.14786 0.796539 -0.446485 140 151 155
2.15061 0.79608 -0.430876 139 150 154
2.14651 0.793095 -0.413947 138 150 152
2.13458 0.787225 -0.395667 139 151 153
2.13044 0.784247 -0.378993 139 150 154
2.11942 0.778749 -0.361249 144 155 159
2.10837 0.773257 -0.343702 142 154 156
2.10416 0.77029 -0.327425 152 160 162
2.09994 0.767327 -0.311247 132 145 151
2.1026 0.766883 -0.296141 89 107 119
2.10526 0.766438 -0.281034 100 119 128
2.10199 0.763839 -0.265179 113 127 135
2.08386 0.75586 -0.247645 128 138 145
2.08054 0.753269 -0.232066 134 145 149
2.08316 0.752832 -0.217193 138 150 152
2.09869 0.757052 -0.203573 140 150 152
2.10828 0.759119 -0.189232 135 145 147
2.1179 0.761182 -0.174793 136 148 150
2.11357 0.758236 -0.159203 134 146 148
2.10923 0.755292 -0.143712 134 146 148
2.11186 0.754853 -0.128747 136 149 148
2.11449 0.754413 -0.113782 136 148 150
2.11713 0.753973 -0.0988163 136 148 150
2.11976 0.753533 -0.0838513 141 150 154
2.1224 0.753093 -0.0688861 141 151 153
2.13207 0.755146 -0.0540996 140 151 150
2.14176 0.757197 -0.0392139 142 153 152
2.13736 0.754263 -0.0240699 142 153 152
2.13293 0.751333 -0.00902549 140 151 150
2.10929 0.741653 0.00586671 135 148 147
2.09165 0.734115 0.02045 134 146 148
2.08815 0.731556 0.0349873 133 145 147
2.10999 0.737867 0.0500415 135 147 149
2.12579 0.742042 0.0651778 138 148 150
2.13552 0.744087 0.0802689 143 153 155
2.14424 0.745775 0.0954137 138 148 150
2.16114 0.750291 0.111063 138 146 148
2.1842 0.756923 0.127267 143 151 153
2.19402 0.758952 0.142889 143 151 153
2.1967 0.758505 0.158095 144 149 152
2.1922 0.755587 0.172736 144 152 154
2.18154 0.750554 0.186751 147 156 154
2.16981 0.745174 0.200487 151 160 158
2.16525 0.742267 0.214739 147 156 154
2.16787 0.741828 0.229654 145 156 154
2.1705 0.74139 0.24457 149 160 158
2.18035 0.743414 0.260348 148 157 155
2.19021 0.745435 0.276225 146 157 155
2.19286 0.744994 0.29124 144 153 152
2.1955 0.744552 0.306255 144 151 155
2.18363 0.739197 0.319148 144 153 152
2.17276 0.734198 0.332001 143 152 151
2.16185 0.729205 0.344671 145 156 155
2.16445 0.728772 0.359402 145 154 153
2.16079 0.726238 0.373054 145 154 152
2.17693 0.730356 0.390174 145 154 152
2.19938 0.736566 0.408641 147 154 150
2.22396 0.743468 0.427781 145 154 152
2.23289 0.745121 0.444094 147 152 155
2.23555 0.744677 0.459201 146 152 152
2.23192 0.742139 0.472973 146 152 152
2.22721 0.739256 0.486432 146 155 154
2.21513 0.733935 0.498135 142 153 152
2.21776 0.733497 0.513051 139 152 150
2.22776 0.735495 0.529721 136 147 146
2.23779 0.73749 0.546491 141 150 154
2.24783 0.739482 0.56336 140 151 155
2.26423 0.743556 0.581959 142 153 152
2.27432 0.745542 0.599069 141 152 151
2.29184 0.749953 0.61828 137 148 147
2.2871 0.747075 0.631533 145 154 153
2.2749 0.741774 0.642585 145 150 153
2.25629 0.7344 0.651594 146 152 151
2.23762 0.727035 0.66032 146 153 149
2.22637 0.722099 0.671014 143 153 148
2.23538 0.72374 0.687766 140 150 145
2.25189 0.727796 0.706954 142 154 149
2.26201 0.729776 0.724269 137 148 146
2.26464 0.729336 0.739234 138 149 148
2.25976 0.726481 0.751701 136 146 148
2.25594 0.723974 0.764432 142 153 151
2.25103 0.721125 0.776708 135 146 144
2.25364 0.720689 0.791531 140 146 145
2.2638 0.722662 0.809051 144 148 147
2.26642 0.722225 0.823925 147 152 148
2.27552 0.72385 0.841194 142 149 145
2.27814 0.723412 0.85611 142 152 147
2.27427 0.720913 0.868544 138 150 145
2.27689 0.720476 0.883417 139 152 150
2.27951 0.720039 0.89829 140 152 147
2.28212 0.719602 0.913163 137 149 144
2.28474 0.719164 0.928036 140 149 147
2.2732 0.714278 0.937072 144 151 147
2.2758 0.713843 0.951853 149 154 150
2.2784 0.713409 0.966634 144 151 147
2.28756 0.715024 0.984237 145 152 148
2.28361 0.71254 0.996196 142 148 147
2.27197 0.707669 1.00468 142 148 147
2.23178 0.693939 1.0002 138 145 141
2.20138 0.683291 0.999656 139 149 144
2.18409 0.676743 1.00475 137 147 142
2.19317 0.678372 1.0219 137 147 142
2.21549 0.68408 1.04538 137 147 142
2.2588 0.69624 1.07911 138 148 143
2.29669 0.706685 1.11071 138 148 143
2.33576 0.717457 1.14329 138 148 143
2.34614 0.719393 1.1621 138 148 143
2.34879 0.718951 1.17711 138 148 143
2.3359 0.713765 1.18425 138 148 143
2.31743 0.706891 1.18835 138 148 143
2.30558 0.702056 1.19564 136 145 143
2.30816 0.701624 1.21033 136 145 143
2.31075 0.701192 1.22501 136 145 143
2.32003 0.702788 1.24329 136 145 143
2.32262 0.702355 1.25802 136 145 143
2.31851 0.699897 1.26908 136 145 143
2.31326 0.697104 1.27944 140 152 147
2.30127 0.692292 1.28594 140 152 147
2.2971 0.689844 1.29669 140 152 147
2.28506 0.685041 1.30287 140 152 147
2.26736 0.678562 1.30563 140 152 147
2.23611 0.668055 1.30028 140 152 147
2.1924 0.653865 1.28724 140 152 147
2.15761 0.642379 1.27896 141 153 148
2.10466 0.625537 1.2594 141 153 148
2.06177 0.611733 1.24529 141 153 148
2.01878 0.597947 1.23062 141 153 148
1.99495 0.589871 1.22722 141 153 148
1.9756 0.583144 1.22632 141 153 148
1.97323 0.581443 1.23581 141 153 148
1.96971 0.57941 1.24453 140 152 147
1.97756 0.58072 1.26043 140 152 147
1.97973 0.580358 1.27274 140 152 147
1.9819 0.579996 1.28505 140 152 147
1.98406 0.579634 1.29736 140 152 147
1.98623 0.579272 1.30967 140 152 147
1.9884 0.57891 1.32198 140 152 147
1.99056 0.578548 1.33429 141 153 148
1.99732 0.579517 1.3497 141 153 148
2.01096 0.582479 1.36985 141 153 148
2.02349 0.585105 1.38936 141 153 148
2.04179 0.589387 1.41298 141 153 148
2.04976 0.590676 1.42956 141 153 148
2.04622 0.588648 1.43812 141 153 148
2.04843 0.588278 1.45069 141 154 146
2.05064 0.587908 1.46326 141 154 146
1.9666 0.853899 -1.95398 185 183 184
1.96945 0.853423 -1.93778 185 186 183
1.9654 0.849963 -1.91486 188 189 186
1.9622 0.846879 -1.89289 190 191 188
1.95119 0.840446 -1.86358 189 190 187
1.954 0.839976 -1.84761 192 193 190
1.97069 0.84546 -1.84462 190 195 191
1.98655 0.850566 -1.8406 189 190 187
1.99636 0.853063 -1.83078 188 187 184
1.99923 0.852585 -1.81453 192 190 184
1.98813 0.846167 -1.78574 188 189 181
1.97787 0.840126 -1.75795 187 187 181
1.96757 0.834092 -1.73037 187 187 181
1.97037 0.833624 -1.71445 187 187 181
1.97317 0.833155 -1.69852 185 183 177
1.97598 0.832687 -1.68259 185 185 179
1.98494 0.834809 -1.67185 188 188 182
2.00185 0.840257 -1.66761 185 185 179
2.01086 0.842371 -1.65661 181 183 177
2.0137 0.841896 -1.64047 185 187 181
2.02362 0.844376 -1.63003 179 182 174
2.02647 0.843899 -1.61383 182 183 175
2.02222 0.840473 -1.59205 181 182 174
2.02506 0.839998 -1.57591 184 183 175
2.0279 0.839524 -1.55977 183 184 176
2.02451 0.836472 -1.53888 184 184 178
2.02734 0.835999 -1.52279 180 180 174
2.02302 0.832584 -1.5014 182 182 176
2.01242 0.8266 -1.47552 179 182 174
2.00806 0.823193 -1.4544 182 183 180
2.00457 0.820156 -1.43403 173 177 176
2.00736 0.819691 -1.41821 176 177 174
2.01644 0.821793 -1.40678 175 177 171
2.01923 0.821326 -1.39091 175 177 171
2.02925 0.82379 -1.37995 176 178 172
2.03205 0.823322 -1.36402 166 171 167
2.03485 0.822854 -1.34809 163 170 166
2.03766 0.822385 -1.33216 167 175 168
2.04681 0.824475 -1.32033 167 175 168
2.04962 0.824006 -1.30436 163 170 166
2.06699 0.829376 -1.29751 164 171 167
2.0762 0.831457 -1.28537 158 167 165
2.08634 0.8339 -1.27369 159 168 166
2.08189 0.830508 -1.25309 156 167 166
2.07101 0.824571 -1.22881 158 169 167
2.06009 0.818639 -1.20474 156 167 165
2.04913 0.812714 -1.18088 155 166 164
2.03814 0.806795 -1.15724 155 166 164
2.02711 0.800882 -1.1338 150 163 161
2.01604 0.794976 -1.11058 153 166 165
1.99941 0.786898 -1.08457 150 163 162
1.98271 0.778829 -1.05886 151 164 163
1.9669 0.771131 -1.03393 150 163 162
1.95658 0.765616 -1.01216 148 161 159
1.95273 0.762641 -0.993895 148 159 157
1.96835 0.767269 -0.985488 150 161 159
1.9961 0.776594 -0.982833 153 164 163
2.01832 0.783738 -0.977091 150 160 162
2.02755 0.785816 -0.964842 148 158 160
2.03026 0.785363 -0.949437 150 160 162
2.03297 0.78491 -0.934033 151 161 163
2.03569 0.784457 -0.918629 150 161 160
2.03184 0.781481 -0.900318 149 162 161
2.03454 0.78103 -0.884963 149 162 161
2.04382 0.783099 -0.872416 146 159 158
2.05312 0.785165 -0.85977 151 163 165
2.06243 0.787228 -0.847025 146 157 156
2.06516 0.786772 -0.831521 148 161 160
2.06789 0.786317 -0.816018 147 160 159
2.064 0.783348 -0.797954 146 159 158
2.05346 0.77787 -0.77748 152 163 162
2.04288 0.772399 -0.757204 150 161 160
2.03892 0.769441 -0.739537 152 163 162
2.0416 0.768994 -0.724331 150 161 160
2.05094 0.771053 -0.711437 148 159 158
2.06697 0.775613 -0.700706 146 157 156
2.08304 0.780168 -0.689777 144 157 155
2.09245 0.782215 -0.676487 143 156 154
2.09518 0.781759 -0.660983 144 157 155
2.08449 0.776306 -0.641351 143 156 154
2.08049 0.773356 -0.623933 148 159 157
2.08319 0.772905 -0.608578 148 159 158
2.08589 0.772453 -0.593223 148 161 160
2.08859 0.772002 -0.577868 144 157 156
2.09805 0.774042 -0.56433 141 153 155
2.10076 0.773589 -0.548926 143 153 155
2.10347 0.773136 -0.533521 142 154 156
2.10618 0.772683 -0.518117 140 152 154
2.1089 0.77223 -0.502713 140 152 154
2.11161 0.771778 -0.487309 141 153 155
2.11432 0.771325 -0.471904 140 152 154
2.11703 0.770872 -0.4565 143 154 153
2.11974 0.770419 -0.441096 143 154 153
2.12928 0.772444 -0.427061 140 150 152
2.132 0.77199 -0.411608 139 151 153
2.12788 0.769061 -0.394883 140 152 154
2.13059 0.768608 -0.379478 141 153 155
2.12643 0.765683 -0.362902 148 158 160
2.11539 0.76029 -0.345303 150 160 162
2.10431 0.754903 -0.327903 152 160 162
2.10008 0.751989 -0.311723 106 120 123
2.10274 0.751545 -0.296616 88 105 114
2.1054 0.751101 -0.28151 100 119 128
2.10806 0.750657 -0.266403 111 128 135
2.10478 0.748102 -0.250589 126 139 145
2.09356 0.742738 -0.233975 133 147 150
2.09619 0.742298 -0.219009 135 147 149
2.10578 0.744316 -0.20472 138 148 150
2.10843 0.743875 -0.189705 137 147 149
2.1041 0.740979 -0.174114 138 148 150
2.09377 0.735983 -0.158169 133 145 147
2.09639 0.735545 -0.143296 133 145 147
2.09901 0.735108 -0.128423 133 145 147
2.10162 0.734671 -0.11355 139 151 153
2.11025 0.736332 -0.0989589 136 148 150
2.1199 0.738339 -0.0843226 137 146 150
2.12957 0.740344 -0.0695872 143 153 155
2.13925 0.742345 -0.0547528 142 153 152
2.14794 0.743995 -0.0398003 134 146 148
2.1506 0.743551 -0.0246934 138 150 152
2.14014 0.738578 -0.00952827 134 146 148
2.12863 0.733262 0.00545026 135 147 149
2.11203 0.726212 0.0201822 133 145 147
2.10146 0.721257 0.0347455 133 145 147
2.11013 0.72291 0.0495775 132 144 146
2.11273 0.722477 0.0643089 134 146 148
2.11532 0.722044 0.0790404 138 148 150
2.12504 0.724039 0.0940875 135 145 147
2.14089 0.728112 0.109547 133 144 148
2.16393 0.734605 0.125605 140 149 153
2.17372 0.736588 0.141084 135 146 150
2.18251 0.738222 0.156589 140 149 153
2.18517 0.737778 0.171695 138 147 151
2.18168 0.735259 0.186277 142 152 154
2.17714 0.732398 0.200679 144 154 156
2.17978 0.731957 0.215693 144 155 154
2.18243 0.731516 0.230708 145 156 154
2.19228 0.733488 0.246534 145 154 152
2.19494 0.733045 0.261598 147 156 154
2.19035 0.730191 0.275752 144 155 153
2.193 0.72975 0.290767 144 155 153
2.19564 0.729308 0.305782 144 155 153
2.19828 0.728867 0.320796 145 155 150
2.18639 0.723615 0.333594 145 154 152
2.18278 0.721116 0.347516 144 153 151
2.17187 0.716218 0.360146 145 154 153
2.16718 0.713383 0.37367 147 156 154
2.18333 0.717405 0.390829 147 153 152
2.19952 0.721423 0.408172 146 155 153
2.2241 0.728174 0.427306 145 154 153
2.23304 0.729784 0.443618 145 155 150
2.2357 0.72934 0.458725 141 152 151
2.23835 0.728896 0.473832 142 153 152
2.23471 0.726402 0.487563 141 152 151
2.23736 0.725959 0.502628 142 153 152
2.24001 0.725517 0.517692 137 148 147
2.24266 0.725074 0.532756 143 151 153
2.24532 0.724631 0.547821 140 150 152
2.25431 0.726231 0.564473 140 148 150
2.26437 0.728169 0.581482 142 151 150
2.28187 0.732484 0.600542 145 156 154
2.29198 0.734414 0.617798 146 155 154
2.29468 0.733964 0.633103 146 155 154
2.28993 0.731138 0.646308 141 151 153
2.27026 0.723566 0.655114 143 155 157
2.23776 0.711935 0.659852 145 156 155
2.21264 0.702688 0.666371 141 154 153
2.20134 0.697855 0.676791 140 148 150
2.21781 0.701824 0.695749 142 151 150
2.22682 0.703422 0.712493 137 148 147
2.24334 0.707383 0.73177 138 150 152
2.25347 0.709311 0.74909 140 149 148
2.25608 0.708874 0.763963 139 148 146
2.25117 0.706075 0.77624 139 148 146
2.24732 0.703617 0.788796 142 151 150
2.23591 0.698802 0.798572 147 151 151
2.23094 0.696013 0.810516 144 150 150
2.22703 0.693564 0.82276 140 149 147
2.21554 0.688762 0.832075 143 155 150
2.21159 0.686319 0.8441 139 149 144
2.21414 0.685894 0.858562 133 145 140
2.21668 0.685469 0.873025 139 149 144
2.2051 0.680683 0.881837 133 142 140
2.19457 0.676237 0.890907 138 149 148
2.19055 0.673807 0.902499 140 149 147
2.17997 0.66937 0.911271 139 149 144
2.16281 0.66293 0.917096 141 146 142
2.15872 0.660511 0.928307 142 148 141
2.13602 0.652412 0.931321 145 147 141
2.1264 0.648332 0.939819 141 146 142
2.09811 0.638581 0.939811 137 144 140
2.08842 0.634513 0.947878 137 145 138
2.09079 0.634117 0.961348 138 145 141
2.12287 0.642717 0.988657 138 145 141
2.15723 0.651972 1.01739 140 147 143
2.21151 0.667204 1.05601 140 147 143
2.26149 0.681087 1.09316 140 147 143
2.31379 0.695616 1.13201 140 147 143
2.33854 0.701824 1.15779 140 147 143
2.34893 0.703707 1.17664 140 147 143
2.34381 0.700944 1.18772 140 147 143
2.332 0.696194 1.19528 140 147 143
2.32017 0.69145 1.20267 140 147 143
2.32277 0.691015 1.21745 140 147 143
2.31757 0.688264 1.22809 140 147 143
2.31347 0.685847 1.23924 140 147 143
2.30154 0.681119 1.24607 140 147 143
2.29629 0.678378 1.25639 140 147 143
2.29213 0.67597 1.26722 135 142 138
2.2734 0.669276 1.26983 135 142 138
2.25573 0.66292 1.27281 135 142 138
2.23129 0.654595 1.27169 135 142 138
2.20117 0.644634 1.267 135 142 138
2.15859 0.631065 1.2547 135 142 138
2.11253 0.616527 1.23985 135 142 138
2.0799 0.605949 1.23241 139 146 142
2.04833 0.595714 1.22521 139 146 142
2.02798 0.588772 1.22441 139 146 142
2.00872 0.582167 1.22401 139 146 142
1.9894 0.57557 1.22335 139 146 142
1.98139 0.572256 1.22945 139 146 142
1.97334 0.568946 1.23543 141 148 144
1.96983 0.566948 1.24414 141 148 144
1.96744 0.56528 1.25352 141 148 144
1.96959 0.56492 1.26576 141 148 144
1.97175 0.56456 1.27801 141 148 144
1.9739 0.5642 1.29026 141 148 144
1.97606 0.56384 1.3025 141 148 144
1.97821 0.56348 1.31475 141 149 142
1.98037 0.56312 1.32699 141 149 142
1.98252 0.56276 1.33924 141 149 142
1.98927 0.563701 1.35461 141 149 142
2.00752 0.567891 1.37793 141 149 142
2.02005 0.570451 1.39746 141 149 142
2.03376 0.573332 1.41793 141 149 142
2.03596 0.572964 1.43043 140 150 145
2.03816 0.572597 1.44294 140 150 145
2.04036 0.572229 1.45545 140 150 145
1.97363 0.840384 -1.96133 187 188 185
1.98338 0.842834 -1.95186 190 191 188
1.97935 0.839428 -1.92882 187 189 183
1.96839 0.833101 -1.89923 195 195 189
1.95826 0.827147 -1.8707 192 193 185
1.95415 0.823754 -1.84811 191 192 184
1.9639 0.826204 -1.83863 188 189 181
1.97368 0.82865 -1.82903 191 190 182
1.98956 0.833645 -1.82491 191 190 182
1.99241 0.833169 -1.80871 188 189 181
1.98828 0.82978 -1.78625 188 189 181
1.97802 0.823847 -1.75846 184 185 177
1.97384 0.820466 -1.73626 181 183 172
1.97665 0.819996 -1.72029 182 182 176
1.97946 0.819527 -1.70431 185 185 179
1.98228 0.819057 -1.68833 187 187 181
1.98509 0.818587 -1.67235 185 185 179
1.99495 0.821019 -1.66225 182 182 176
2.00483 0.823447 -1.65203 187 185 179
2.01385 0.825509 -1.64098 185 185 179
2.02377 0.827931 -1.63054 181 182 174
2.03371 0.830349 -1.61999 183 184 176
2.03657 0.829871 -1.60374 182 183 175
2.03232 0.826502 -1.58195 183 184 176
2.02806 0.823137 -1.56027 182 185 177
2.0309 0.822662 -1.54413 181 181 175
2.04088 0.825074 -1.53336 181 182 174
2.05088 0.827482 -1.52247 181 182 179
2.04658 0.824121 -1.50096 178 181 173
2.04226 0.820764 -1.47957 178 181 173
2.03164 0.814891 -1.4538 178 180 174
2.02728 0.811541 -1.43268 180 182 176
2.03009 0.811072 -1.4167 178 180 174
2.0329 0.810602 -1.40073 180 180 174
2.03571 0.810132 -1.38475 178 180 174
2.0322 0.80715 -1.36452 166 171 167
2.02776 0.803813 -1.3438 163 170 166
2.03056 0.803346 -1.32793 162 172 167
2.04061 0.805745 -1.31674 162 171 169
2.04341 0.805277 -1.30081 165 174 172
2.05987 0.810177 -1.29345 160 169 167
2.06998 0.812567 -1.28193 159 168 166
2.07281 0.812093 -1.26584 159 168 166
2.06833 0.808763 -1.24535 159 168 166
2.05743 0.802936 -1.22117 158 170 165
2.0465 0.797116 -1.1972 155 166 164
2.03552 0.791301 -1.17345 156 167 165
2.03094 0.787988 -1.15356 157 166 164
2.02726 0.785035 -1.13429 157 166 165
2.02356 0.782084 -1.11513 152 163 161
2.00601 0.773799 -1.08856 152 163 162
1.99579 0.768369 -1.06625 155 166 165
1.98553 0.762944 -1.04414 152 163 162
1.98173 0.760011 -1.02557 155 166 165
1.9844 0.759565 -1.01042 151 162 161
1.99356 0.761603 -0.998518 155 166 165
2.01577 0.768601 -0.99293 152 163 162
2.02499 0.770629 -0.980731 150 161 160
2.03422 0.772655 -0.968434 150 161 160
2.03694 0.772201 -0.95298 151 162 161
2.03966 0.771747 -0.937526 155 166 165
2.04238 0.771292 -0.922072 152 163 161
2.0451 0.770838 -0.906618 149 162 161
2.04782 0.770384 -0.891164 149 162 161
2.05054 0.76993 -0.87571 149 162 161
2.05326 0.769475 -0.860256 149 162 161
2.05598 0.769021 -0.844803 147 160 159
2.06531 0.771032 -0.832009 147 160 159
2.06142 0.768112 -0.813895 149 162 161
2.0509 0.762733 -0.793318 149 162 161
2.04034 0.757359 -0.77294 150 163 162
2.02311 0.749531 -0.750297 151 161 163
2.02577 0.749087 -0.73519 153 164 163
2.03508 0.7511 -0.722447 152 163 162
2.05775 0.75802 -0.714231 151 162 161
2.08047 0.764932 -0.705718 152 163 161
2.09751 0.769733 -0.695009 148 159 158
2.11363 0.774178 -0.683779 143 156 155
2.10968 0.771268 -0.666004 141 157 155
2.09135 0.763115 -0.643902 144 157 156
2.08063 0.757767 -0.624416 146 157 156
2.08333 0.757316 -0.609062 146 157 155
2.09277 0.759308 -0.595624 147 160 158
2.10223 0.761297 -0.582087 144 157 156
2.1117 0.763284 -0.568451 146 157 156
2.11443 0.762828 -0.552947 145 156 155
2.11716 0.762373 -0.537444 144 153 152
2.11311 0.75948 -0.520271 142 152 154
2.10904 0.756591 -0.503198 142 155 154
2.10496 0.753705 -0.486224 145 156 155
2.09405 0.748389 -0.467828 145 156 155
2.09673 0.747941 -0.452573 148 159 158
2.09942 0.747492 -0.437317 143 153 155
2.10893 0.749471 -0.423433 141 151 153
2.11163 0.749021 -0.408128 144 154 156
2.11432 0.748571 -0.392823 148 157 156
2.11702 0.748122 -0.377518 153 163 165
2.11284 0.74525 -0.361039 146 157 156
2.10865 0.742381 -0.34466 149 159 161
2.11133 0.741934 -0.329454 146 155 153
2.11401 0.741487 -0.314248 91 108 115
2.10978 0.738624 -0.298067 93 110 119
2.10554 0.735763 -0.281985 105 122 129
2.10227 0.733251 -0.266128 118 131 137
2.10492 0.732808 -0.251063 125 139 142
2.10064 0.729955 -0.235223 140 149 153
2.10328 0.729514 -0.220208 142 150 152
2.10592 0.729072 -0.205193 143 151 153
2.10857 0.728631 -0.190178 143 151 153
2.09727 0.723381 -0.174007 137 147 149
2.08693 0.71848 -0.158109 137 147 149
2.08954 0.718044 -0.143286 134 146 148
2.09215 0.717608 -0.128462 134 144 146
2.09476 0.717172 -0.113639 136 148 150
2.10438 0.719133 -0.0991454 136 147 151
2.11302 0.72075 -0.0845132 138 147 151
2.12971 0.7251 -0.0700602 137 147 149
2.13939 0.727051 -0.0552272 142 153 152
2.15514 0.731049 -0.0404082 142 153 152
2.1578 0.730604 -0.0252519 137 147 149
2.16047 0.730158 -0.0100956 137 147 149
2.15 0.725279 0.00503023 136 146 148
2.13848 0.720066 0.0199623 136 146 148
2.12794 0.715198 0.0347126 140 150 152
2.12346 0.712379 0.0494203 135 146 150
2.11286 0.707521 0.0638449 136 147 151
2.10935 0.705048 0.0783496 131 141 143
2.11805 0.706655 0.0933078 131 143 145
2.1339 0.710636 0.108714 133 143 145
2.14978 0.714611 0.124305 134 146 148
2.16671 0.71892 0.140147 133 145 147
2.18266 0.722884 0.156113 134 146 148
2.19249 0.724811 0.171781 138 147 151
2.19515 0.724366 0.186938 137 146 150
2.19782 0.72392 0.202094 141 150 154
2.20049 0.723474 0.217251 143 153 155
2.19595 0.720664 0.231647 143 153 155
2.19861 0.72022 0.246754 137 147 149
2.19508 0.717751 0.261124 143 153 155
2.1905 0.714947 0.275279 146 154 156
2.19314 0.714506 0.290294 144 153 152
2.19578 0.714065 0.305309 145 154 152
2.20568 0.715979 0.321381 145 154 152
2.20833 0.715537 0.336446 145 154 152
2.20371 0.71274 0.350353 146 155 153
