ply
format ascii 1.0
comment pointcloud saved from PyCharm
element vertex 1278
property float32 x
property float32 y
property float32 z
property uchar blue
property uchar green
property uchar red
end_header
-0.377169 0.183128 -3.68406 71 71 81
-0.350811 0.182184 -3.65945 77 77 87
-0.323019 0.1803 -3.61602 80 77 86
-0.297292 0.179356 -3.59156 82 80 86
-0.278984 0.183117 -3.66122 103 94 101
-0.265623 0.191164 -3.81621 114 111 115
-0.252467 0.201093 -4.00821 128 131 134
-0.229497 0.204645 -4.07268 142 143 151
-0.206967 0.209607 -4.16497 171 175 175
-0.183284 0.214779 -4.2611 208 206 200
-0.158401 0.220211 -4.36208 214 213 205
-0.129706 0.221619 -4.38312 246 245 237
-0.100632 0.223027 -4.40408 254 255 250
0.269094 0.208298 -4.02958 254 255 250
0.297024 0.208295 -4.02308 254 255 250
0.322998 0.207038 -3.9924 254 255 250
0.350761 0.207034 -3.98594 254 255 250
0.441936 0.210787 -4.03864 251 254 246
0.467406 0.20953 -4.00808 234 228 214
0.495505 0.209527 -4.00154 250 248 236
0.523604 0.209523 -3.99501 254 255 252
0.97901 0.210725 -3.9137 251 255 252
1.00128 0.209468 -3.88388 251 255 252
1.02938 0.209465 -3.87734 251 255 252
1.05115 0.208208 -3.84763 248 248 229
1.06609 0.205698 -3.79488 254 255 250
1.0873 0.204493 -3.76633 238 226 209
1.11473 0.20449 -3.75995 177 171 169
1.16288 0.208196 -3.82164 163 159 160
1.23502 0.215922 -3.9568 155 153 153
1.31291 0.224276 -4.10294 128 126 126
1.37865 0.230227 -4.20468 83 85 90
1.42841 0.233305 -4.25368 78 80 85
1.44991 0.231734 -4.21788 75 79 84
1.45196 0.227187 -4.12809 68 76 83
1.44495 0.221438 -4.01678 67 75 82
1.4378 0.215899 -3.90963 66 74 81
1.45789 0.21459 -3.87928 65 72 81
1.48669 0.214587 -3.87259 66 73 82
1.54388 0.218605 -3.93833 63 70 79
1.5935 0.221421 -3.98222 62 69 78
1.63355 0.222828 -4.00063 60 67 76
1.67398 0.224235 -4.01894 57 66 75
1.71518 0.225693 -4.0381 57 66 75
1.75677 0.227152 -4.05717 56 65 76
1.78725 0.227148 -4.05008 55 64 75
1.79433 0.224221 -3.99094 53 65 75
1.79001 0.219988 -3.90879 51 63 73
1.78541 0.215859 -3.82876 49 61 71
1.77049 0.210634 -3.72956 49 58 69
1.76665 0.206872 -3.65654 48 57 68
1.76271 0.203214 -3.58559 46 55 66
1.77986 0.202062 -3.55901 43 52 63
1.81725 0.203207 -3.5729 43 52 63
1.85542 0.204405 -3.58763 42 51 62
1.89392 0.205603 -3.60229 42 54 64
1.95665 0.209359 -3.66161 44 53 64
2.02088 0.213167 -3.72162 49 61 69
2.04949 0.213163 -3.71496 53 65 73
2.05316 0.210602 -3.6638 59 71 81
2.03189 0.205587 -3.57019 60 72 82
2.02392 0.202034 -3.50223 61 75 85
2.03885 0.20083 -3.47515 65 79 89
2.05399 0.199679 -3.44904 66 80 90
2.09276 0.200824 -3.4626 67 84 91
2.11972 0.200821 -3.45633 69 86 93
2.1344 0.199669 -3.43033 73 87 95
2.12448 0.196273 -3.36591 80 95 101
2.08047 0.18985 -3.24987 85 98 104
2.04978 0.184783 -3.15743 91 105 108
2.05291 0.182849 -3.11871 92 105 111
2.0561 0.180967 -3.08101 97 108 112
2.0696 0.180025 -3.05939 91 102 106
2.05127 0.176369 -2.99179 93 103 110
2.03319 0.172817 -2.92619 96 107 111
2.02658 0.170309 -2.87845 109 118 122
2.02934 0.168636 -2.84495 114 120 127
2.05198 0.168633 -2.83968 105 112 116
2.05472 0.167013 -2.80722 88 97 101
2.07714 0.16701 -2.802 84 93 97
2.07988 0.165442 -2.77057 96 105 109
2.09215 0.164656 -2.75231 108 116 118
2.0841 0.162305 -2.70799 112 119 123
2.05782 0.158598 -2.64121 111 116 119
2.02369 0.154368 -2.56599 107 113 113
2.00019 0.151026 -2.50576 103 111 113
1.99464 0.149093 -2.46906 101 109 111
2.01466 0.14909 -2.4644 101 109 111
2.04322 0.149714 -2.47008 103 108 111
2.06332 0.149712 -2.4654 102 107 110
2.07471 0.149083 -2.45043 100 106 106
2.09473 0.149081 -2.44577 103 109 109
2.08737 0.147148 -2.4095 104 110 109
2.07201 0.144693 -2.36482 106 110 109
2.0575 0.142343 -2.322 107 111 110
2.05149 0.140619 -2.28952 108 112 111
2.05348 0.139469 -2.26647 112 117 113
2.05593 0.138371 -2.24434 111 113 107
2.05808 0.137273 -2.22228 111 113 107
2.05995 0.136176 -2.20029 112 113 110
2.06231 0.13513 -2.17921 112 114 108
2.05636 0.133563 -2.14979 113 114 106
2.05809 0.132517 -2.12885 113 113 107
2.05301 0.131054 -2.10129 111 110 107
2.05495 0.130061 -2.08133 107 107 107
2.04914 0.128598 -2.05394 104 104 104
2.05887 0.128127 -2.04244 105 105 105
2.06847 0.127655 -2.03096 109 108 105
2.08562 0.127653 -2.02697 102 103 100
2.10276 0.127651 -2.02298 106 105 102
2.12771 0.128119 -2.02642 103 103 103
2.14492 0.128117 -2.02242 103 103 103
2.16213 0.128115 -2.01841 103 103 104
2.17135 0.127644 -2.00703 102 102 103
2.16435 0.126233 -1.98094 102 102 103
2.15066 0.124458 -1.94922 102 102 103
2.11378 0.121378 -1.89722 103 103 104
2.09348 0.11929 -1.86088 103 103 104
2.07445 0.117306 -1.8263 103 103 104
2.07627 0.116522 -1.81047 103 103 104
2.07039 0.115321 -1.78823 103 103 104
2.07267 0.114589 -1.77333 103 103 104
2.07381 0.113805 -1.75766 103 103 104
2.0824 0.113438 -1.74848 103 103 104
2.09089 0.113071 -1.73932 103 103 103
2.10608 0.113069 -1.73578 103 103 103
2.11442 0.112702 -1.72665 103 103 103
2.12266 0.112335 -1.71755 103 103 103
2.11096 0.110926 -1.69255 103 103 103
2.09188 0.109151 -1.66209 103 103 103
2.07434 0.10748 -1.63331 103 103 103
2.06243 0.106123 -1.60939 103 103 103
2.05833 0.105183 -1.59187 103 103 103
2.05396 0.104242 -1.5744 103 103 103
2.05556 0.103615 -1.56171 103 103 103
2.05698 0.102988 -1.54906 103 103 103
2.05824 0.10236 -1.53645 103 103 103
2.07199 0.102359 -1.53325 103 103 103
2.08575 0.102357 -1.53005 103 103 103
2.0995 0.102356 -1.52685 104 104 104
2.11326 0.102354 -1.52365 104 104 104
2.13352 0.102665 -1.5251 104 104 104
2.14077 0.102351 -1.51725 104 104 104
2.14245 0.101776 -1.50557 104 104 104
2.1252 0.100314 -1.48083 104 104 104
2.102 0.0985921 -1.45235 104 104 104
2.07946 0.0969222 -1.42474 104 104 104
2.06434 0.0956173 -1.40259 104 104 104
2.05454 0.0945732 -1.38434 104 104 104
2.05016 0.0937897 -1.36996 104 104 104
2.04098 0.0927977 -1.35259 104 104 104
2.04192 0.0922749 -1.34211 104 104 104
2.03807 0.0915437 -1.32863 104 104 104
2.03987 0.0910731 -1.31897 104 104 104
2.05211 0.0910717 -1.31612 103 103 103
2.07498 0.0915394 -1.32004 103 103 103
2.10987 0.0925285 -1.33143 103 103 103
2.13905 0.0932568 -1.33901 103 103 103
2.15159 0.0932554 -1.3361 103 103 103
-1.48722 0.146516 -3.67952 90 84 90
-1.45725 0.145791 -3.65612 88 82 88
-1.42751 0.145067 -3.63278 86 78 91
-1.38531 0.143034 -3.57676 85 77 90
-1.3373 0.140324 -3.50399 85 77 88
-1.30366 0.139058 -3.46742 80 72 83
-1.28207 0.139056 -3.4624 80 72 83
-1.28419 0.14167 -3.52244 75 69 82
-1.28028 0.143698 -3.56772 77 69 82
-1.26981 0.145049 -3.59609 78 70 83
-1.2597 0.14649 -3.62659 75 68 84
-1.24913 0.147931 -3.65698 73 66 82
-1.23812 0.149372 -3.68727 77 69 82
-1.22116 0.150136 -3.70078 78 70 83
-1.19784 0.150133 -3.69536 78 72 85
-1.16852 0.149364 -3.67108 79 73 86
-1.1512 0.150128 -3.68451 77 71 82
-1.1394 0.151659 -3.71667 77 71 84
-1.12149 0.152423 -3.72995 74 69 85
-1.10333 0.153187 -3.74318 75 70 86
-1.07413 0.152418 -3.71894 74 68 86
-1.04517 0.151648 -3.69474 74 68 86
-1.01645 0.150879 -3.67061 73 67 85
-0.987961 0.150109 -3.64653 73 68 84
-0.964641 0.150107 -3.6411 73 68 84
-0.941321 0.150104 -3.63568 72 67 83
-0.918001 0.150101 -3.63025 70 69 84
-0.899251 0.150865 -3.64334 64 64 81
-0.884714 0.152396 -3.67487 65 64 79
-0.861037 0.152393 -3.66936 65 63 80
-0.83736 0.152391 -3.66385 63 62 77
-0.813682 0.152388 -3.65834 64 63 78
-0.78603 0.151618 -3.63446 64 64 76
-0.758617 0.150849 -3.61063 66 66 78
-0.731441 0.15008 -3.58685 68 68 80
-0.708121 0.150077 -3.58142 68 68 80
-0.684802 0.150074 -3.576 73 67 80
-0.658103 0.149305 -3.55234 71 67 80
-0.634902 0.149303 -3.54694 71 67 80
-0.608745 0.148578 -3.52443 65 65 77
-0.5885 0.149297 -3.53614 66 66 78
-0.565299 0.149295 -3.53075 65 65 77
-0.544882 0.150058 -3.54345 64 66 78
-0.521562 0.150056 -3.53802 64 66 78
-0.498242 0.150053 -3.5326 64 66 78
-0.477348 0.150817 -3.54519 66 68 80
-0.458523 0.152347 -3.57572 64 69 80
-0.439221 0.153877 -3.60613 67 69 81
-0.417495 0.154686 -3.61956 67 69 79
-0.395518 0.155495 -3.63292 69 71 81
-0.37135 0.155492 -3.6273 72 73 81
-0.343559 0.153866 -3.58388 74 75 83
-0.316459 0.152331 -3.54267 79 76 85
-0.295728 0.153861 -3.57275 83 82 86
-0.280493 0.158772 -3.68111 103 96 98
-0.268597 0.166703 -3.85903 118 115 119
-0.252462 0.173417 -4.00825 130 132 137
-0.229492 0.176479 -4.07272 142 146 151
-0.205723 0.179676 -4.14008 183 181 182
-0.181048 0.182963 -4.20928 255 255 250
-0.157381 0.188685 -4.33416 254 255 252
-0.128875 0.189898 -4.35525 254 255 252
-0.0993535 0.189895 -4.34838 254 255 252
0.295241 0.178537 -3.99889 254 255 252
0.323004 0.178534 -3.99243 254 255 252
0.352891 0.179612 -4.01012 254 255 252
0.380822 0.179609 -4.00362 254 255 252
0.467411 0.18068 -4.00812 239 235 223
0.49551 0.180677 -4.00158 242 238 231
0.526743 0.181755 -4.01895 254 255 249
0.55501 0.181752 -4.01238 254 255 250
1.01352 0.182826 -3.93137 251 255 250
1.04197 0.182823 -3.92475 251 255 250
1.06382 0.181694 -3.894 248 245 223
1.08559 0.18061 -3.8643 254 255 250
1.10035 0.178444 -3.81159 245 232 217
1.12812 0.178441 -3.80513 182 177 172
1.18418 0.182807 -3.89167 160 158 159
1.25056 0.188523 -4.00661 155 153 153
1.32148 0.194645 -4.12973 123 121 122
1.36959 0.197208 -4.17706 81 83 88
1.40955 0.198511 -4.19754 78 79 87
1.43096 0.197201 -4.16278 75 78 86
1.44262 0.194631 -4.10155 69 75 82
1.44496 0.190935 -4.01682 69 74 83
1.45589 0.188499 -3.95884 70 75 84
1.47599 0.187325 -3.92747 64 71 80
1.51455 0.188493 -3.94519 63 70 79
1.54388 0.188489 -3.93837 63 70 79
1.58336 0.189702 -3.9569 62 69 78
1.61288 0.189698 -3.95004 59 66 77
1.65293 0.190911 -3.96844 59 66 75
1.70407 0.193339 -4.01198 59 66 75
1.76849 0.197162 -4.08426 56 65 74
1.79917 0.197159 -4.07712 54 63 72
1.80604 0.194589 -4.017 52 64 74
1.81295 0.192109 -3.95893 52 64 74
1.78541 0.186118 -3.82879 49 61 71
1.78146 0.182738 -3.75271 48 60 70
1.77736 0.179448 -3.67872 44 56 66
1.78355 0.177284 -3.628 44 56 66
1.81114 0.177281 -3.62158 44 53 64
1.84994 0.178358 -3.6372 41 50 61
1.8777 0.178355 -3.63074 41 50 61
1.90547 0.178352 -3.62428 41 50 61
1.94494 0.179429 -3.63974 46 55 66
1.99663 0.181587 -3.67699 51 60 71
2.0249 0.181583 -3.67041 52 64 74
2.02873 0.17942 -3.62024 56 70 80
2.00816 0.175185 -3.52852 58 72 82
1.98889 0.171176 -3.44163 62 76 86
1.98162 0.168292 -3.37762 62 79 88
1.9858 0.166444 -3.33455 66 83 90
2.01171 0.166441 -3.32853 66 83 90
2.04865 0.167338 -3.34047 71 88 95
2.06354 0.166435 -3.31647 71 89 94
2.06629 0.164587 -3.27374 78 96 101
2.05816 0.161929 -3.21506 85 99 102
2.04979 0.159316 -3.15746 89 100 104
2.03181 0.156027 -3.08669 94 105 109
2.04543 0.155215 -3.06505 98 109 113
2.0588 0.154402 -3.04346 92 103 107
2.05127 0.152059 -2.99182 92 103 107
2.04363 0.149761 -2.94124 96 106 113
2.02658 0.146834 -2.87848 109 118 122
2.02935 0.145391 -2.84498 117 124 128
2.04183 0.144668 -2.82565 105 112 116
2.04509 0.143316 -2.79409 90 96 103
2.05767 0.142638 -2.77576 87 94 98
2.0602 0.141286 -2.74438 98 107 111
2.07226 0.140609 -2.72617 109 117 119
2.0841 0.139931 -2.70802 114 118 118
2.07678 0.137994 -2.66557 112 118 118
2.05106 0.134887 -2.60072 106 112 111
2.02646 0.131915 -2.53868 105 111 111
2.0114 0.129618 -2.48983 102 111 110
2.01466 0.128536 -2.46443 102 111 110
2.02542 0.127949 -2.44858 102 111 109
2.02809 0.126867 -2.42332 101 110 109
2.03913 0.126325 -2.40843 102 111 110
2.05075 0.125828 -2.39444 103 109 109
2.04444 0.124251 -2.35997 107 111 111
2.03839 0.122719 -2.32647 105 111 111
2.03261 0.121233 -2.29394 109 113 113
2.04312 0.120736 -2.2802 111 111 111
2.05348 0.120239 -2.2665 112 113 110
2.07221 0.120236 -2.26214 110 111 108
2.06591 0.118795 -2.23075 112 114 108
2.05995 0.117398 -2.20031 112 113 110
2.06231 0.116497 -2.17923 112 114 108
2.0644 0.115595 -2.15821 110 112 106
2.0581 0.114244 -2.12888 111 111 111
2.05301 0.112982 -2.10131 111 112 109
2.04753 0.111721 -2.07384 107 108 105
2.04914 0.110864 -2.05396 107 108 105
2.05887 0.110458 -2.04246 105 106 103
2.06847 0.110051 -2.03099 104 104 104
2.07795 0.109644 -2.01954 103 103 103
2.10277 0.110047 -2.02301 104 104 105
2.12771 0.11045 -2.02644 101 101 101
2.15278 0.110853 -2.02985 103 102 99
2.17005 0.110851 -2.02583 100 102 96
2.17135 0.110039 -2.00705 101 103 97
2.1572 0.108463 -1.97441 101 103 97
2.12723 0.106123 -1.928 101 103 97
2.09925 0.103918 -1.8842 102 104 98
2.07242 0.101802 -1.84219 102 104 98
2.06707 0.100766 -1.81982 102 104 98
2.06884 0.10009 -1.80401 102 104 98
2.07039 0.099414 -1.78825 102 104 98
2.05852 0.0981083 -1.76124 102 104 98
2.06051 0.0974771 -1.7464 102 104 98
2.06229 0.0968459 -1.73162 104 106 100
2.06388 0.0962147 -1.71687 104 106 100
2.07888 0.096213 -1.71338 104 106 100
2.08703 0.0958965 -1.7043 104 106 100
2.10197 0.0958948 -1.70082 104 106 100
2.10402 0.0953087 -1.687 104 106 100
2.09888 0.0944078 -1.66766 104 106 100
2.08743 0.0932373 -1.64364 104 106 100
2.08169 0.0923365 -1.62444 103 104 101
2.0767 0.0914808 -1.60609 103 104 101
2.07246 0.09067 -1.5886 103 104 101
2.06797 0.0898592 -1.57116 103 104 101
2.06323 0.0890485 -1.55379 103 104 101
2.06453 0.0885075 -1.54116 103 104 101
2.06672 0.0880115 -1.52936 103 104 101
2.07406 0.0877402 -1.52149 102 103 100
2.08774 0.0877386 -1.51831 102 103 100
2.10142 0.0877371 -1.51513 102 103 100
2.1086 0.0874658 -1.5073 102 103 100
2.11678 0.0872395 -1.50026 102 103 100
2.1238 0.0869683 -1.49247 102 103 100
2.11858 0.0862027 -1.47623 102 103 100
2.102 0.0849877 -1.45237 102 103 100
2.09176 0.0840424 -1.43319 102 102 102
2.08123 0.0830971 -1.41408 102 102 102
2.07153 0.0821968 -1.3958 102 102 102
2.06726 0.0815212 -1.3814 102 102 102
2.06277 0.0808456 -1.36704 102 102 102
2.05807 0.0801701 -1.35274 102 102 102
2.06012 0.0797642 -1.34302 102 102 102
2.06672 0.0795381 -1.33635 101 101 102
2.085 0.0797614 -1.33723 101 101 102
2.11398 0.0803891 -1.34486 101 101 102
2.14435 0.0810616 -1.3532 101 101 102
2.16894 0.0815095 -1.35774 101 101 102
2.18166 0.0815081 -1.35479 101 101 102
-1.47256 0.121942 -3.64329 86 89 92
-1.45003 0.12194 -3.63805 87 89 94
-1.42084 0.121368 -3.61586 87 88 96
-1.39186 0.120797 -3.59371 86 87 95
-1.35665 0.119656 -3.55472 87 88 96
-1.32819 0.119085 -3.5327 85 86 94
-1.31243 0.119651 -3.54443 88 85 94
-1.30259 0.120786 -3.57295 86 83 92
-1.29233 0.121921 -3.60136 87 83 94
-1.27612 0.122526 -3.61401 87 83 94
-1.25348 0.122523 -3.60875 86 82 93
-1.23694 0.123127 -3.62132 84 81 90
-1.22615 0.124338 -3.65167 86 82 93
-1.20905 0.124942 -3.66411 83 79 92
-1.19172 0.125546 -3.67651 83 79 92
-1.16852 0.125543 -3.67111 82 78 91
-1.14532 0.125541 -3.66571 81 77 90
-1.12212 0.125538 -3.66032 80 76 89
-1.10456 0.12618 -3.67369 76 74 91
-1.08676 0.126822 -3.687 74 72 89
-1.06872 0.127464 -3.70026 69 67 84
-1.03988 0.126816 -3.67609 70 68 85
-1.01644 0.126814 -3.67064 68 66 83
-0.987957 0.126167 -3.64656 68 66 83
-0.959709 0.125519 -3.62253 66 66 83
-0.936508 0.125517 -3.61714 62 60 77
-0.917997 0.126159 -3.63028 58 57 72
-0.899247 0.1268 -3.64337 57 55 72
-0.88471 0.128086 -3.6749 55 53 70
-0.861033 0.128084 -3.66939 60 54 72
-0.837355 0.128081 -3.66388 59 53 71
-0.813678 0.128078 -3.65837 57 52 68
-0.790001 0.128076 -3.65286 60 56 69
-0.762468 0.127428 -3.62901 61 56 72
-0.73891 0.127426 -3.62353 63 63 75
-0.715352 0.127423 -3.61804 64 64 76
-0.691793 0.12742 -3.61256 68 67 82
-0.668235 0.127418 -3.60708 66 67 75
-0.644677 0.127415 -3.6016 66 66 78
-0.624259 0.128057 -3.61431 65 65 75
-0.603604 0.128698 -3.62695 65 65 75
-0.58271 0.12934 -3.63955 68 68 78
-0.558794 0.129337 -3.63398 64 66 76
-0.534879 0.129334 -3.62842 64 66 76
-0.510963 0.129331 -3.62285 64 66 76
-0.492185 0.130693 -3.65544 64 66 76
-0.472902 0.132054 -3.68792 66 69 77
-0.450799 0.132733 -3.70126 67 69 81
-0.428564 0.13345 -3.71559 69 69 79
-0.399642 0.132046 -3.67087 74 71 80
-0.371346 0.130679 -3.62733 74 75 83
-0.341843 0.128668 -3.56606 73 74 82
-0.318046 0.128665 -3.56052 80 77 86
-0.297283 0.129989 -3.59162 82 80 86
-0.281922 0.134115 -3.69995 104 99 103
-0.27157 0.141652 -3.90185 117 114 118
-0.253967 0.146611 -4.03225 128 130 135
-0.230835 0.149184 -4.09668 144 148 153
-0.206957 0.151909 -4.16504 190 190 190
-0.184388 0.156603 -4.2871 254 255 250
-0.158391 0.159592 -4.36216 254 255 252
-0.129695 0.160611 -4.3832 254 255 252
0.323009 0.15003 -3.99247 254 255 252
0.352896 0.150935 -4.01016 254 255 252
0.380827 0.150932 -4.00366 254 255 252
0.411218 0.151838 -4.02123 254 255 252
0.498481 0.152737 -4.02557 246 247 239
0.526748 0.152734 -4.01899 254 255 252
0.558454 0.153677 -4.03728 254 255 252
0.586897 0.153673 -4.03066 254 255 252
1.03875 0.157447 -4.02923 243 241 229
1.06122 0.15646 -3.99731 208 199 188
1.09019 0.156456 -3.99057 236 223 203
1.11239 0.155507 -3.95974 254 255 240
1.12036 0.152665 -3.88089 233 220 205
1.14862 0.152662 -3.87431 174 169 164
1.19877 0.155497 -3.93965 161 159 159
1.25057 0.158408 -4.00665 155 153 153
1.30466 0.161469 -4.07722 124 122 122
1.34301 0.162488 -4.09602 81 83 88
1.36446 0.161463 -4.06331 79 81 86
1.38554 0.160437 -4.03069 74 81 85
1.41525 0.160434 -4.02377 72 78 85
1.42656 0.158387 -3.9657 69 74 83
1.45589 0.158384 -3.95888 70 75 84
1.48522 0.158381 -3.95206 64 71 80
1.53409 0.16042 -3.99613 63 70 79
1.55385 0.159395 -3.96381 62 69 78
1.57322 0.158371 -3.93158 60 67 76
1.5926 0.157384 -3.90038 60 67 76
1.62175 0.15738 -3.8936 60 67 76
1.66122 0.15836 -3.91111 58 65 74
1.71236 0.1604 -3.95465 57 66 75
1.75316 0.161418 -3.97288 55 64 73
1.7605 0.159372 -3.91573 54 63 72
1.7675 0.157363 -3.85969 53 62 71
1.76339 0.154447 -3.78159 49 61 69
1.75996 0.151683 -3.70745 46 58 68
1.77736 0.150772 -3.67876 44 56 66
1.80529 0.150769 -3.67226 46 55 66
1.83322 0.150765 -3.66576 43 52 63
1.87236 0.15167 -3.6813 42 51 62
1.88908 0.150759 -3.65277 41 49 63
1.91701 0.150756 -3.64627 40 49 60
1.94495 0.150753 -3.63977 44 53 64
1.97288 0.150749 -3.63327 50 59 70
2.00081 0.150746 -3.62678 52 66 74
1.98089 0.147188 -3.5349 54 68 78
1.9736 0.144651 -3.46781 58 72 82
1.96641 0.14219 -3.40275 61 75 85
1.95989 0.139842 -3.34062 64 81 90
1.96379 0.138289 -3.29762 65 82 89
1.98941 0.138286 -3.29166 69 86 93
2.01504 0.138283 -3.28569 69 86 93
2.0295 0.137524 -3.2618 74 88 96
2.04369 0.136765 -3.23796 78 94 97
2.03586 0.134569 -3.18024 84 98 101
2.03937 0.133167 -3.14143 88 102 105
2.03182 0.131085 -3.08673 93 104 108
2.04544 0.130401 -3.06508 98 109 113
2.0588 0.129718 -3.04349 93 104 108
2.0616 0.128392 -3.00691 93 104 108
2.05408 0.126461 -2.9563 96 107 111
2.03652 0.123963 -2.89262 111 118 122
2.02935 0.122146 -2.84501 114 122 124
2.04183 0.121539 -2.82568 109 115 115
2.03546 0.119835 -2.78096 91 99 101
2.05768 0.119832 -2.77579 87 94 98
2.05036 0.118129 -2.73129 100 108 110
2.06232 0.117559 -2.71311 111 119 121
2.08411 0.117557 -2.70804 110 118 120
2.09642 0.117025 -2.69081 106 112 112
2.0887 0.115397 -2.64846 107 113 113
2.07208 0.113316 -2.59586 103 112 110
2.05608 0.11131 -2.54517 103 112 110
2.04992 0.109872 -2.50759 102 111 110
2.04323 0.108433 -2.47013 103 112 111
2.04535 0.107486 -2.44397 104 110 110
2.03914 0.106123 -2.40846 102 111 110
2.04195 0.105252 -2.38419 106 112 111
2.03556 0.103927 -2.34974 106 112 111
2.03839 0.103093 -2.3265 107 113 112
2.03262 0.101844 -2.29396 112 112 112
2.04313 0.101426 -2.28022 112 113 110
2.05348 0.101008 -2.26652 108 113 109
2.07221 0.101006 -2.26216 114 115 112
2.06591 0.0997947 -2.23078 109 115 108
2.06784 0.0989991 -2.20877 112 114 108
2.06232 0.0978635 -2.17925 112 114 108
2.0644 0.0971057 -2.15823 111 113 107
2.0581 0.0959701 -2.1289 110 110 104
2.05301 0.0949102 -2.10134 106 111 107
2.04754 0.0938502 -2.07387 108 109 106
2.03418 0.0924503 -2.03899 104 106 100
2.03624 0.0917683 -2.02003 104 105 97
2.05326 0.0917664 -2.01607 104 103 100
2.07795 0.0921044 -2.01956 102 102 102
2.10277 0.0924425 -2.02303 102 102 102
2.12771 0.0927805 -2.02647 104 104 104
2.15278 0.0931185 -2.02987 105 103 103
2.15421 0.0924366 -2.01106 104 102 103
2.1403 0.0911125 -1.97837 103 103 104
2.11874 0.0894863 -1.93923 103 103 104
2.08306 0.0872935 -1.88799 102 102 103
2.07019 0.0860829 -1.85813 102 102 103
2.0651 0.0852124 -1.8357 102 102 103
2.06708 0.084644 -1.81984 102 102 103
2.07627 0.0843778 -1.81052 102 102 103
2.07039 0.0835073 -1.78827 102 102 103
2.06513 0.0826746 -1.76691 102 102 103
2.05386 0.0816154 -1.74078 102 102 103
2.05559 0.0810849 -1.72601 103 103 104
2.05714 0.0805545 -1.71128 103 103 104
2.06625 0.0803262 -1.70299 103 103 104
2.08116 0.0803245 -1.69953 103 103 104
2.09606 0.0803227 -1.69606 103 103 104
2.09707 0.0797924 -1.68145 103 103 104
2.09889 0.0792998 -1.66768 103 103 104
2.10656 0.0790337 -1.65871 103 103 104
2.10197 0.0783146 -1.64027 102 102 102
2.10323 0.0778221 -1.62663 102 102 102
2.09815 0.077103 -1.60831 102 102 102
2.0928 0.076384 -1.59004 102 102 102
2.08198 0.0754762 -1.56792 102 102 102
2.07083 0.0745684 -1.54588 102 102 102
2.06672 0.073925 -1.52938 102 102 102
2.06238 0.0732816 -1.51294 104 104 104
2.06956 0.0730535 -1.50511 104 104 104
2.07666 0.0728254 -1.49729 104 104 104
2.09018 0.0728239 -1.49415 104 104 104
2.09824 0.0726336 -1.48714 104 104 104
2.09965 0.0722168 -1.47552 104 104 104
2.10091 0.0718 -1.46393 104 104 104
2.09645 0.0711944 -1.44855 104 104 104
2.09177 0.070589 -1.43321 105 104 101
2.09249 0.0701723 -1.42175 105 104 101
2.08853 0.0696046 -1.40727 105 104 101
2.08435 0.0690369 -1.39284 105 104 101
2.07997 0.0684692 -1.37846 105 104 101
2.08114 0.0680903 -1.36792 105 104 101
2.08798 0.0679002 -1.3612 105 104 101
2.09475 0.06771 -1.35449 104 105 102
2.11319 0.0678973 -1.35533 104 105 102
2.13762 0.0682732 -1.35991 104 105 102
2.15624 0.0684605 -1.36072 104 105 102
2.17493 0.0686477 -1.3615 104 105 102
2.18166 0.0684576 -1.3548 104 105 102
-1.46568 0.0983514 -3.62632 86 88 93
-1.44326 0.0983488 -3.6211 83 88 91
-1.42084 0.0983462 -3.61588 87 88 96
-1.39841 0.0983437 -3.61067 84 87 95
-1.37599 0.0983411 -3.60545 83 84 92
-1.35357 0.0983385 -3.60023 83 85 97
-1.33115 0.098336 -3.59502 85 85 95
-1.31486 0.0987943 -3.60663 89 85 96
-1.2863 0.0983308 -3.58458 85 86 94
-1.26388 0.0983282 -3.57937 86 82 93
-1.24727 0.0987865 -3.59091 83 83 95
-1.23084 0.0992756 -3.60351 83 82 97
-1.22017 0.100256 -3.63388 83 83 93
-1.20317 0.100745 -3.64635 81 81 91
-1.19171 0.101726 -3.67654 84 84 96
-1.16851 0.101723 -3.67114 83 79 92
-1.14531 0.10172 -3.66574 81 77 90
-1.12211 0.101718 -3.66035 79 79 91
-1.10455 0.102237 -3.67372 80 76 89
-1.08676 0.102757 -3.68703 81 76 92
-1.06872 0.103276 -3.70029 80 75 91
-1.04516 0.103274 -3.69481 72 70 87
-1.01644 0.102749 -3.67067 74 73 88
-0.987952 0.102224 -3.64659 72 70 87
-0.964632 0.102221 -3.64116 70 71 86
-0.941313 0.102219 -3.63574 71 73 85
-0.917993 0.102216 -3.63031 72 72 84
-0.899243 0.102735 -3.6434 70 69 84
-0.880255 0.103255 -3.65644 67 68 83
-0.856697 0.103252 -3.65096 66 67 82
-0.833138 0.103249 -3.64548 66 65 80
-0.813674 0.103769 -3.6584 68 64 77
-0.793971 0.104288 -3.67127 69 65 76
-0.77403 0.104807 -3.68409 70 70 82
-0.750114 0.104805 -3.67852 69 69 81
-0.726199 0.104802 -3.67296 68 69 84
-0.705987 0.105352 -3.68674 68 70 82
-0.681945 0.105349 -3.68114 72 72 82
-0.657904 0.105346 -3.67555 69 69 79
-0.640513 0.106449 -3.70847 67 69 79
-0.622617 0.107551 -3.74126 66 68 80
-0.598071 0.107548 -3.73555 62 64 76
-0.573525 0.107546 -3.72984 60 61 76
-0.548979 0.107543 -3.72413 59 60 75
-0.524433 0.10754 -3.71842 56 57 72
-0.505166 0.108673 -3.75192 57 58 73
-0.485653 0.109867 -3.78742 57 58 73
-0.465464 0.111031 -3.82174 57 59 71
-0.440119 0.111028 -3.81584 59 61 73
-0.410417 0.109859 -3.76992 59 61 73
-0.379201 0.108106 -3.70414 61 62 70
-0.350797 0.106968 -3.65954 65 66 74
-0.324691 0.106413 -3.63499 70 71 79
-0.303517 0.107515 -3.66702 73 74 82
-0.285023 0.109844 -3.74075 101 96 100
-0.271565 0.114752 -3.90188 116 113 117
-0.253962 0.118769 -4.03228 129 131 136
-0.233643 0.122326 -4.14665 144 147 155
-0.20948 0.124563 -4.21597 185 189 188
-0.187906 0.129286 -4.36906 254 255 249
-0.160415 0.130939 -4.41811 254 255 252
-0.130516 0.130936 -4.41115 254 255 252
0.355026 0.122995 -4.03434 254 255 252
0.383125 0.122992 -4.0278 254 255 252
0.411224 0.122988 -4.02126 254 255 252
0.439322 0.122985 -4.01473 254 255 252
0.530017 0.124478 -4.04393 254 255 252
0.55846 0.124475 -4.03732 254 255 252
0.586902 0.124472 -4.0307 254 255 252
0.615344 0.124468 -4.02408 254 255 252
1.04525 0.128316 -4.05445 250 250 239
1.07458 0.128312 -4.04763 213 213 202
1.10391 0.128309 -4.04081 222 219 209
1.1124 0.125946 -3.95978 255 252 233
1.13397 0.125145 -3.92807 220 211 200
1.16258 0.125142 -3.92141 169 165 165
1.20607 0.126702 -3.96365 160 158 159
1.2428 0.127495 -3.9818 156 154 155
1.27195 0.127492 -3.97502 121 119 120
1.29297 0.126692 -3.94343 81 82 90
1.31395 0.125922 -3.91289 77 80 88
1.33424 0.125122 -3.88147 74 80 87
1.37153 0.125916 -3.89949 72 78 85
1.40032 0.125912 -3.89279 71 74 82
1.43781 0.126675 -3.90974 68 74 81
1.476 0.127469 -3.92755 63 71 78
1.52433 0.129089 -3.97072 62 70 77
1.56381 0.129913 -3.98925 62 70 77
1.57323 0.128255 -3.93162 62 69 78
1.57308 0.125893 -3.8526 59 66 75
1.58238 0.124357 -3.7991 59 66 75
1.62035 0.125089 -3.81491 58 65 74
1.65946 0.125883 -3.83251 58 65 74
1.69852 0.126645 -3.84909 54 63 72
1.71704 0.125876 -3.81911 54 63 72
1.73479 0.125076 -3.78829 53 62 71
1.73187 0.122837 -3.71402 51 61 68
1.7389 0.121363 -3.6631 49 59 66
1.76666 0.12136 -3.65665 45 57 65
1.8053 0.122092 -3.6723 47 56 65
1.84427 0.122824 -3.68787 43 52 63
1.88357 0.123556 -3.70337 41 50 61
1.91184 0.123553 -3.69679 40 49 60
1.9401 0.123549 -3.69022 41 50 61
1.96837 0.123546 -3.68364 46 55 66
1.98476 0.122808 -3.65519 48 60 70
1.97672 0.1206 -3.58314 53 65 75
1.958 0.11781 -3.49407 58 70 80
1.9736 0.117133 -3.46785 58 72 80
1.97792 0.115813 -3.4227 60 74 82
1.9705 0.11385 -3.35872 61 80 87
1.97453 0.112592 -3.31569 62 81 88
1.98942 0.111976 -3.29169 65 82 89
2.01504 0.111974 -3.28573 66 83 90
2.01835 0.110746 -3.24389 70 88 93
2.03296 0.110161 -3.22099 79 94 100
2.02499 0.108383 -3.16329 82 97 103
2.01795 0.106696 -3.10846 88 101 107
2.02127 0.105591 -3.07073 92 106 109
2.03477 0.105037 -3.04911 98 109 113
2.06961 0.105585 -3.05949 94 105 109
2.07192 0.104481 -3.02199 94 106 108
2.07496 0.103437 -2.98638 98 108 110
2.0564 0.101353 -2.92088 108 118 120
2.03941 0.099391 -2.85913 112 119 123
2.04184 0.0984089 -2.82571 107 115 117
2.03547 0.0970289 -2.78099 93 101 103
2.04794 0.0965673 -2.76269 85 93 100
2.05037 0.0956465 -2.73132 90 102 104
2.06232 0.0951849 -2.71314 106 116 118
2.08411 0.0951824 -2.70807 105 114 113
2.09642 0.0947515 -2.69083 104 113 112
2.0887 0.093433 -2.64849 104 113 112
2.10042 0.0930021 -2.63139 103 112 111
2.09309 0.091745 -2.591 102 111 110
2.08589 0.0905185 -2.55161 102 111 109
2.07029 0.0889555 -2.50287 105 111 111
2.07197 0.0881576 -2.47579 104 110 110
2.06528 0.0870231 -2.43936 105 111 110
2.05882 0.0859193 -2.4039 102 109 105
2.04444 0.0845096 -2.36002 105 111 110
2.04661 0.0838036 -2.3359 108 113 109
2.04092 0.0827918 -2.30335 109 115 108
2.04313 0.0821165 -2.28025 109 115 108
2.05349 0.0817778 -2.26654 114 116 110
2.06369 0.0814391 -2.25288 112 114 108
2.04949 0.0801521 -2.21306 112 113 110
2.05206 0.0795382 -2.19193 113 113 107
2.05436 0.0789243 -2.17086 112 113 110
2.0644 0.0786163 -2.15826 114 116 110
2.0581 0.0776965 -2.12892 112 111 108
2.05302 0.076838 -2.10136 107 112 108
2.0393 0.0756737 -2.06554 106 111 107
2.0267 0.0745706 -2.03151 104 105 102
2.02199 0.0737734 -2.00591 107 110 102
2.03129 0.0734962 -1.99451 103 105 99
2.06261 0.0740142 -2.00467 104 105 102
2.09504 0.0745627 -2.01561 104 104 104
2.11992 0.074836 -2.01906 102 102 102
2.13707 0.074834 -2.01507 107 107 107
2.14629 0.0745568 -2.00369 101 101 101
2.11723 0.0729647 -1.95706 101 101 101
2.08118 0.0711586 -1.90487 101 101 101
2.05422 0.0696889 -1.86187 101 101 101
2.06383 0.0694731 -1.85244 101 101 101
2.07243 0.0692266 -1.84223 101 101 101
2.08829 0.0692248 -1.83854 101 101 101
2.09672 0.0689784 -1.82837 101 101 101
2.08444 0.0680593 -1.80042 101 101 101
2.07928 0.0673849 -1.77904 101 101 101
2.06716 0.0664965 -1.75208 101 101 101
2.0623 0.0658527 -1.73165 100 100 100
2.06389 0.065423 -1.71691 100 100 100
2.07209 0.0652073 -1.70782 100 100 100
2.08703 0.0652056 -1.70434 100 100 100
2.10198 0.0652038 -1.70086 100 100 100
2.10402 0.0648047 -1.68704 100 100 100
2.10489 0.0643751 -1.67247 100 100 100
2.10656 0.063976 -1.65873 102 102 102
2.11514 0.0637909 -1.65057 102 102 102
2.1165 0.0633919 -1.63691 102 102 102
2.11048 0.062779 -1.61778 102 102 102
2.09901 0.0620132 -1.59478 102 102 102
2.08199 0.0610947 -1.56794 102 102 102
2.07083 0.0603596 -1.5459 102 102 102
2.06039 0.0596551 -1.52471 102 102 102
2.05601 0.059134 -1.50828 101 101 101
2.06315 0.0589491 -1.50046 101 101 101
2.07128 0.0587948 -1.49343 101 101 101
2.08476 0.0587932 -1.49029 101 101 101
2.08625 0.0584556 -1.47866 101 101 101
2.08758 0.0581179 -1.46705 101 101 101
2.08324 0.0576275 -1.45164 101 101 101
2.08978 0.0574426 -1.44395 103 103 103
2.08506 0.0569523 -1.42863 103 103 103
2.08686 0.0566452 -1.41794 103 103 103
2.09419 0.056491 -1.4111 103 103 103
2.09005 0.0560312 -1.39666 103 103 103
2.08571 0.0555715 -1.38228 103 103 103
2.08115 0.0551118 -1.36794 103 103 103
2.08218 0.0548048 -1.35743 103 103 103
2.09475 0.0548034 -1.3545 102 102 102
2.10732 0.0548019 -1.35158 102 102 102
2.1258 0.0549532 -1.35241 102 102 102
2.13841 0.0549518 -1.34948 102 102 102
2.14504 0.0547976 -1.34281 102 102 102
2.15761 0.0547962 -1.33988 102 102 102
-1.4602 0.0739197 -3.56347 85 85 95
-1.44507 0.0742702 -3.57535 84 85 93
-1.42973 0.0746208 -3.58718 83 85 95
-1.41417 0.0749713 -3.59896 83 83 93
-1.39841 0.0753218 -3.6107 84 85 93
-1.38244 0.0756723 -3.62238 83 84 92
-1.35356 0.0753167 -3.60026 81 83 95
-1.3249 0.0749611 -3.5782 79 82 90
-1.30258 0.0749585 -3.573 86 82 93
-1.27424 0.0746029 -3.55101 86 82 93
-1.25202 0.0746004 -3.54584 84 84 96
-1.23563 0.0749508 -3.55743 83 82 97
-1.22474 0.0756542 -3.58569 79 81 93
-1.21418 0.0764046 -3.61609 81 81 91
-1.20317 0.077155 -3.64638 81 81 91
-1.18595 0.0775288 -3.6588 78 79 94
-1.16851 0.0779026 -3.67117 79 79 89
-1.15119 0.0782999 -3.6846 77 77 87
-1.13363 0.0786972 -3.69796 79 79 91
-1.11583 0.0790944 -3.71128 78 77 92
-1.0978 0.0794917 -3.72454 78 78 90
-1.07412 0.0794889 -3.71903 77 77 89
-1.04516 0.0790863 -3.69484 72 74 86
-1.0216 0.0790836 -3.68936 74 73 88
-0.992995 0.078681 -3.66525 72 72 84
-0.969556 0.0786783 -3.65979 74 74 86
-0.941308 0.0782758 -3.63577 71 73 85
-0.922678 0.078673 -3.64889 70 71 86
-0.903809 0.0790701 -3.66195 67 71 85
-0.884701 0.0794672 -3.67496 65 68 84
-0.861024 0.0794645 -3.66945 61 61 78
-0.837347 0.0794618 -3.66394 66 61 77
-0.813669 0.079459 -3.65843 68 64 77
-0.793967 0.0798561 -3.6713 71 66 82
-0.774025 0.0802531 -3.68412 72 71 86
-0.758022 0.0810968 -3.71736 69 74 85
-0.737684 0.0815172 -3.7311 68 72 86
-0.71339 0.0815145 -3.72545 70 75 86
-0.689096 0.0815117 -3.7198 69 74 83
-0.664802 0.0815089 -3.71415 70 75 84
-0.647159 0.0823524 -3.747 67 72 81
-0.632566 0.0836661 -3.8011 66 71 80
-0.611042 0.0841334 -3.81663 69 75 82
-0.585963 0.0841305 -3.81079 68 74 81
-0.560885 0.0841276 -3.80496 68 73 84
-0.535806 0.0841247 -3.79913 70 75 84
-0.513438 0.0845684 -3.81343 68 73 82
-0.493519 0.0854822 -3.84883 67 72 81
-0.473181 0.0864193 -3.88517 70 75 84
-0.447416 0.0864164 -3.87918 72 77 86
-0.419357 0.0859434 -3.85211 73 78 87
-0.387379 0.0845539 -3.7841 73 79 86
-0.358241 0.0836346 -3.73728 74 80 87
-0.333303 0.0836317 -3.73148 78 82 87
-0.306718 0.0831824 -3.70579 82 86 91
-0.288045 0.0849888 -3.7805 103 99 105
-0.27156 0.0878524 -3.90192 115 113 119
-0.252447 0.0903869 -4.00835 125 128 136
-0.233638 0.0936496 -4.14668 145 148 156
-0.209475 0.0953614 -4.21601 191 195 195
-0.189105 0.0996104 -4.3971 254 255 250
-0.16041 0.100241 -4.41814 254 255 252
-0.13051 0.100238 -4.41119 254 255 252
0.355031 0.0941457 -4.03437 254 255 252
0.38313 0.0941425 -4.02784 254 255 252
0.411229 0.0941393 -4.0213 254 255 252
0.439328 0.094136 -4.01476 254 255 252
0.464629 0.0935694 -3.98424 241 243 232
0.558465 0.0952733 -4.03735 254 255 252
0.586907 0.09527 -4.03074 254 255 252
0.611559 0.09468 -3.99933 254 255 252
0.63602 0.0941135 -3.969 254 255 252
1.04525 0.0982004 -4.05449 251 255 252
1.07458 0.098197 -4.04767 246 242 223
1.10392 0.0981936 -4.04084 223 219 207
1.1124 0.0963841 -3.95981 255 250 238
1.13397 0.0957709 -3.9281 222 216 209
1.16258 0.0957676 -3.92145 167 165 165
1.19878 0.0963741 -3.93972 166 164 165
1.22757 0.0963708 -3.93302 162 160 160
1.24842 0.0957578 -3.90148 121 125 125
1.25419 0.0940425 -3.82519 83 80 89
1.27462 0.0934764 -3.79579 80 81 89
1.29471 0.0929104 -3.76648 75 78 86
1.32247 0.0929072 -3.76002 70 76 83
1.35841 0.0934668 -3.7763 69 75 82
1.40304 0.0945891 -3.8152 66 72 79
1.45791 0.0963444 -3.87943 64 69 78
1.50516 0.0975369 -3.9208 64 69 78
1.5439 0.0981431 -3.93848 63 70 79
1.56346 0.0975302 -3.90724 60 67 76
1.56313 0.0957216 -3.82826 59 66 75
1.57264 0.0945696 -3.77574 59 66 75
1.60091 0.0945664 -3.76917 59 66 75
1.63927 0.0951492 -3.78591 57 64 73
1.68825 0.0963179 -3.82585 55 64 73
1.72749 0.0969006 -3.84238 52 64 72
1.73479 0.0957019 -3.78832 51 63 71
1.74224 0.0945502 -3.73629 51 63 71
1.74944 0.0934219 -3.68533 47 59 67
1.76667 0.0928562 -3.65668 44 56 64
1.8053 0.0934155 -3.67233 44 56 64
1.84427 0.0939747 -3.68791 44 53 62
1.89525 0.0951198 -3.72636 38 50 58
1.92369 0.0951165 -3.71974 37 49 59
1.97618 0.0962849 -3.75886 37 45 59
2.01717 0.0968674 -3.77499 44 53 62
2.0209 0.0956691 -3.72176 50 59 68
2.00082 0.093393 -3.62685 53 65 73
1.96971 0.090672 -3.51499 56 68 76
1.98496 0.0901301 -3.48783 60 72 80
2.01191 0.090127 -3.48156 62 76 84
2.03887 0.0901239 -3.47529 64 78 86
2.06583 0.0901208 -3.46902 64 78 86
2.06885 0.0890869 -3.42314 66 80 88
2.08393 0.088592 -3.39807 67 84 91
2.05183 0.0861294 -3.29774 72 87 93
2.02223 0.083831 -3.20401 78 91 97
1.99353 0.0816264 -3.11418 87 100 106
1.99711 0.0807805 -3.07639 91 101 108
2.01073 0.0803561 -3.05474 93 105 107
2.03477 0.0803534 -3.04914 97 108 112
2.06961 0.0807721 -3.05952 93 104 108
2.07193 0.0799263 -3.02202 93 104 108
2.06452 0.0787293 -2.97138 96 107 111
2.05641 0.0775323 -2.92091 104 115 119
2.03941 0.0760311 -2.85916 111 118 122
2.03231 0.0749279 -2.81255 105 113 115
2.02584 0.0738717 -2.76786 88 98 100
2.04795 0.0738692 -2.76272 84 93 97
2.05037 0.0731643 -2.73135 91 101 103
2.06232 0.0728106 -2.71317 105 115 117
2.06535 0.0721526 -2.68372 104 113 112
2.07679 0.0717989 -2.66566 103 112 111
2.07913 0.071141 -2.63637 104 113 112
2.10042 0.0711386 -2.63141 102 111 110
2.10287 0.0705041 -2.60312 103 112 111
2.1141 0.070174 -2.58614 102 111 109
2.10662 0.0692353 -2.54681 104 110 110
2.0993 0.0683201 -2.50847 104 110 110
2.09216 0.0674284 -2.47112 102 111 110
2.06762 0.0659985 -2.4142 103 112 111
2.05259 0.0648963 -2.36945 105 111 110
2.0638 0.0646366 -2.35554 105 111 110
2.05751 0.0638388 -2.3221 104 110 109
2.05151 0.0630644 -2.28962 104 112 105
2.05349 0.0625474 -2.26657 107 113 106
2.05594 0.0620539 -2.24444 107 111 110
2.04949 0.061303 -2.21308 108 113 109
2.04417 0.060599 -2.18352 115 117 111
2.0464 0.0601289 -2.16247 115 117 111
2.04834 0.059659 -2.14149 114 116 110
2.05081 0.0592124 -2.1214 110 113 105
2.04485 0.0585319 -2.09302 111 113 107
2.0393 0.0578749 -2.06556 107 109 103
2.01923 0.0568203 -2.02403 105 110 106
2.01445 0.0562101 -1.99845 104 109 105
2.03129 0.0562082 -1.99453 105 106 103
2.0558 0.0564168 -1.99807 106 106 100
2.08731 0.0568125 -2.00819 106 105 102
2.10433 0.0568105 -2.00423 108 105 102
2.12135 0.0568085 -2.00027 104 102 102
2.13045 0.0565961 -1.98892 103 103 103
2.10925 0.0555886 -1.9497 102 102 102
2.08834 0.0546045 -1.91144 102 102 102
2.08307 0.0540414 -1.88803 100 104 103
2.092 0.0538524 -1.87774 100 104 103
2.10813 0.0538506 -1.87399 100 104 103
2.11689 0.0536617 -1.86373 100 104 103
2.1116 0.0531221 -1.84135 100 104 103
2.10598 0.0525825 -1.81905 100 104 103
2.09344 0.0518793 -1.79116 100 104 103
2.08047 0.0511761 -1.76338 100 104 103
2.08241 0.0508471 -1.74856 100 104 103
2.0909 0.0506817 -1.73939 100 104 103
2.09929 0.0505163 -1.73026 100 104 103
2.10758 0.050351 -1.72114 100 104 103
2.11578 0.0501856 -1.71205 100 104 103
2.11097 0.0497164 -1.69263 100 104 103
2.10489 0.0492238 -1.67249 100 104 103
2.10656 0.0489183 -1.65875 100 104 103
2.10197 0.0484726 -1.64031 100 104 103
2.10324 0.0481671 -1.62667 100 104 103
2.09096 0.0475578 -1.60283 100 104 103
2.0866 0.0471355 -1.58537 100 104 103
2.06949 0.0464328 -1.55855 100 104 103
2.05825 0.0458704 -1.53652 100 104 103
2.05406 0.0454716 -1.52004 102 106 106
2.05601 0.045213 -1.5083 102 106 106
2.06957 0.0452115 -1.50514 102 106 106
2.07667 0.0450697 -1.49733 102 106 106
2.09018 0.0450682 -1.49418 102 106 106
2.09825 0.0449498 -1.48718 102 106 106
2.09966 0.0446913 -1.47555 102 106 106
2.09428 0.0442926 -1.45935 102 106 106
2.09645 0.0440575 -1.44858 102 106 106
2.09177 0.0436822 -1.43324 102 106 106
2.09249 0.0434238 -1.42178 102 106 106
2.09419 0.0431887 -1.41112 102 106 106
2.08436 0.0427201 -1.39287 102 106 106
2.08571 0.042485 -1.38229 102 106 106
2.08692 0.04225 -1.37174 102 106 106
2.08799 0.042015 -1.36123 102 106 106
2.09475 0.0418968 -1.35452 102 106 106
2.10733 0.0418953 -1.3516 102 106 106
2.11399 0.0417771 -1.34491 102 106 106
2.11583 0.0415655 -1.33524 102 106 106
2.12232 0.0414473 -1.3286 102 106 106
2.12874 0.0413292 -1.32197 102 106 106
-1.46717 0.0515747 -3.58052 81 86 95
-1.44506 0.0515722 -3.57538 83 83 93
-1.42972 0.0518148 -3.58721 81 83 95
-1.41417 0.0520574 -3.59899 81 81 91
-1.40496 0.0525452 -3.62765 79 81 91
-1.38931 0.0528041 -3.64044 82 84 94
-1.35991 0.05254 -3.61717 78 80 90
-1.3249 0.0520472 -3.57822 83 83 93
-1.29645 0.0517995 -3.5562 81 81 93
-1.2682 0.0515519 -3.53423 81 81 93
-1.24017 0.0513042 -3.51231 83 83 95
-1.22981 0.0517918 -3.5407 83 83 93
-1.22474 0.0525245 -3.58572 81 84 92
-1.22016 0.053306 -3.63394 79 82 90
-1.20903 0.0538262 -3.6642 81 83 95
-1.1917 0.0540849 -3.6766 78 80 92
-1.1805 0.0546376 -3.7089 76 78 90
-1.15706 0.0546349 -3.70345 82 78 91
-1.14515 0.0551875 -3.73558 80 80 92
-1.12711 0.0554624 -3.74884 77 78 93
-1.10332 0.0554597 -3.7433 79 78 93
-1.07952 0.0554569 -3.73777 76 77 92
-1.05044 0.0551766 -3.71355 73 72 87
-1.02676 0.0551739 -3.70804 72 71 86
-0.998037 0.0548936 -3.6839 71 71 83
-0.969551 0.0546133 -3.65982 71 70 85
-0.950921 0.0548882 -3.67294 70 71 86
-0.927363 0.0548855 -3.66746 68 68 85
-0.908374 0.0551603 -3.6805 68 68 85
-0.889148 0.0554351 -3.69348 65 69 83
-0.869683 0.0557098 -3.7064 61 61 78
-0.841555 0.0554296 -3.68241 60 60 77
-0.813665 0.0551494 -3.65846 62 62 72
-0.789988 0.0551467 -3.65296 68 68 78
-0.770166 0.0554214 -3.6658 70 70 82
-0.758018 0.0562836 -3.71739 72 72 84
-0.73768 0.0565745 -3.73114 69 74 85
-0.717089 0.0568655 -3.74483 68 72 86
-0.685514 0.0562753 -3.70052 72 74 86
-0.657895 0.0559788 -3.67561 71 73 83
-0.637178 0.0562697 -3.68927 69 75 82
-0.622609 0.0571479 -3.74133 68 74 81
-0.604379 0.0577487 -3.77507 67 75 82
-0.582684 0.0580558 -3.78953 68 76 83
-0.554768 0.057743 -3.76353 66 73 82
-0.529963 0.0577401 -3.75776 68 75 84
-0.507869 0.0580472 -3.77213 66 73 82
-0.4908 0.0589902 -3.8277 67 74 83
-0.470602 0.0596397 -3.86407 71 78 87
-0.447411 0.0599629 -3.87921 68 75 84
-0.421645 0.0599599 -3.87322 73 79 86
-0.393726 0.0596308 -3.84619 73 80 84
-0.366088 0.0593018 -3.81922 75 82 86
-0.33873 0.0589728 -3.79232 76 83 87
-0.311739 0.0586601 -3.76654 82 87 90
-0.28804 0.0589669 -3.78053 103 102 106
-0.271555 0.0609529 -3.90195 115 117 122
-0.250999 0.0623518 -3.98546 125 132 136
-0.232226 0.0645818 -4.12175 141 149 156
-0.206941 0.065361 -4.16515 194 200 200
-0.185532 0.0678026 -4.31417 254 255 250
-0.15736 0.068223 -4.33431 254 255 252
-0.128027 0.0682196 -4.32749 254 255 252
-0.0980822 0.0677926 -4.29383 254 255 252
0.355036 0.0652965 -4.03441 254 255 252
0.411234 0.06529 -4.02134 254 255 252
0.436703 0.0648961 -3.99077 254 255 252
0.461836 0.0645021 -3.96028 244 246 240
0.489599 0.0644989 -3.95382 254 255 250
0.583297 0.0656613 -4.00595 254 255 252
0.607926 0.0652675 -3.97558 254 255 252
0.632218 0.0648736 -3.94528 254 255 252
0.660149 0.0648704 -3.93879 254 255 252
0.804618 0.0652449 -3.92982 251 255 252
1.04526 0.0680849 -4.05453 251 255 252
1.07459 0.0680816 -4.04771 248 244 225
1.10392 0.0680782 -4.04088 224 217 207
1.10537 0.0663998 -3.9348 255 251 237
1.12731 0.0660062 -3.90505 221 213 206
1.15576 0.0660029 -3.89843 169 167 168
1.1912 0.0663899 -3.91483 167 165 166
1.21981 0.0663866 -3.90817 164 162 162
1.24108 0.0659931 -3.87858 114 112 118
1.24669 0.0648031 -3.80233 83 84 92
1.25927 0.0640195 -3.75012 79 80 88
1.27935 0.0636425 -3.72184 78 79 87
1.29911 0.0632655 -3.69363 74 77 85
1.32638 0.0632623 -3.68728 69 75 82
1.36165 0.063633 -3.70269 65 71 78
1.40576 0.0643938 -3.74068 62 70 77
1.45958 0.0655607 -3.80208 62 70 77
1.50591 0.0663538 -3.84161 61 70 79
1.53453 0.0663505 -3.83495 57 66 75
1.54438 0.065551 -3.78236 58 67 76
1.56329 0.0651578 -3.75332 57 66 75
1.59139 0.0651545 -3.74678 56 65 74
1.64897 0.0663374 -3.80833 56 65 74
1.7199 0.0680075 -3.89758 54 63 72
1.77179 0.0688813 -3.94094 52 64 72
1.77856 0.0680007 -3.88393 51 63 71
1.78543 0.0671527 -3.82894 49 61 69
1.79202 0.0663209 -3.77505 48 60 68
1.79878 0.0655218 -3.72317 46 58 66
1.81618 0.0651287 -3.69448 42 54 62
1.85531 0.0655153 -3.71002 44 53 62
1.90646 0.0663078 -3.74843 40 49 60
1.95924 0.0671327 -3.78851 39 48 59
2.01322 0.0679738 -3.82934 39 48 59
2.0689 0.0688472 -3.87182 44 53 64
2.07188 0.067967 -3.81569 49 58 69
2.03746 0.0659017 -3.69331 52 64 74
2.00432 0.063934 -3.57679 56 68 76
2.02005 0.0635574 -3.54952 60 72 80
2.04748 0.0635543 -3.54313 61 75 83
2.0871 0.0639245 -3.55753 66 80 88
2.1147 0.0639213 -3.55111 65 79 87
2.12978 0.0635448 -3.52399 68 82 92
2.13242 0.0628113 -3.47717 69 83 93
2.07472 0.0603413 -3.33454 73 87 95
2.01093 0.057758 -3.18614 79 94 100
1.97295 0.05597 -3.08204 87 100 106
1.97627 0.0553831 -3.04431 90 100 107
2.00018 0.0553803 -3.03874 94 105 109
2.03477 0.0556697 -3.04918 98 109 113
2.05882 0.0556669 -3.04358 94 105 109
2.06161 0.0550963 -3.007 94 105 109
2.05409 0.0542662 -2.95639 98 107 111
2.03654 0.0531928 -2.89271 109 117 119
2.02936 0.0524116 -2.8451 114 120 120
2.03232 0.0519061 -2.81258 106 112 112
2.02585 0.0511736 -2.76789 84 92 94
2.03822 0.0509278 -2.74961 82 90 92
2.04053 0.0504387 -2.71827 93 103 105
2.05304 0.0502092 -2.70099 106 116 118
2.0553 0.0497364 -2.67069 105 115 117
2.04836 0.0490529 -2.62918 107 113 113
2.05108 0.0486127 -2.60083 104 110 110
2.0631 0.0483995 -2.58468 105 110 113
2.08402 0.0483971 -2.57982 104 113 112
2.0859 0.0479569 -2.55166 104 112 114
2.08811 0.047533 -2.52445 103 112 111
2.08132 0.0469146 -2.48702 101 110 109
2.06529 0.0461018 -2.43941 102 111 110
2.05883 0.045516 -2.40395 105 111 110
2.05259 0.0449464 -2.36947 107 112 108
2.05484 0.0445714 -2.34533 106 111 107
2.04922 0.0440344 -2.31276 106 111 107
2.05151 0.0436757 -2.28964 107 112 108
2.05349 0.043317 -2.26659 108 114 107
2.04742 0.0427963 -2.23515 112 114 108
2.03385 0.0421298 -2.19621 112 114 108
2.02839 0.0416416 -2.16668 116 116 110
2.03047 0.0413155 -2.14567 114 117 109
2.03308 0.0410056 -2.12555 114 115 107
2.02732 0.0405338 -2.09712 110 111 103
2.03014 0.0402402 -2.07798 110 110 104
2.0393 0.0400762 -2.06558 105 106 103
2.02671 0.0394911 -2.03155 107 106 103
2.0287 0.0391975 -2.01261 107 109 103
2.0389 0.039066 -2.00202 105 107 101
2.0558 0.0390641 -1.99809 105 106 103
2.0727 0.0390621 -1.99416 104 105 102
2.08181 0.0389144 -1.9828 105 106 103
2.09864 0.0389125 -1.97888 104 104 104
2.10756 0.0387649 -1.96757 103 101 102
2.10215 0.0383581 -1.94316 103 101 102
2.09639 0.0379515 -1.91883 104 102 103
2.09749 0.0376743 -1.90112 104 102 103
2.10653 0.0375429 -1.89081 104 102 103
2.11546 0.0374116 -1.88052 104 102 103
2.11689 0.0371507 -1.86376 104 102 103
2.11811 0.0368899 -1.84705 104 102 103
2.11254 0.0365158 -1.82473 104 102 103
2.10004 0.0360284 -1.79683 104 102 103
2.09473 0.0356705 -1.77548 104 102 102
2.09581 0.035426 -1.75983 104 102 102
2.1044 0.035311 -1.75065 104 102 102
2.11289 0.0351959 -1.74148 104 102 102
2.11443 0.0349677 -1.72675 104 102 102
2.11578 0.0347394 -1.71207 104 102 102
2.11693 0.0345111 -1.69742 104 102 102
2.10489 0.0340726 -1.6725 104 102 102
2.09348 0.0336503 -1.64847 105 101 101
2.0888 0.0333412 -1.63005 105 101 101
2.07671 0.032919 -1.60617 105 101 101
2.07247 0.0326262 -1.58867 105 101 101
2.06798 0.0323334 -1.57124 105 101 101
2.05075 0.0318466 -1.54445 105 101 101
2.03518 0.0313922 -1.51932 105 101 101
2.03612 0.0311965 -1.50678 104 102 102
2.04964 0.031195 -1.50364 104 102 102
2.06957 0.0312905 -1.50516 104 102 102
2.07667 0.0311919 -1.49735 104 102 102
2.09669 0.0312873 -1.49885 104 102 102
2.1037 0.0311888 -1.49106 104 102 102
2.11173 0.0311064 -1.48406 104 102 102
2.11306 0.030927 -1.47245 104 102 102
2.10757 0.0306506 -1.45628 103 102 99
2.10296 0.0303905 -1.44092 103 102 99
2.09812 0.0301303 -1.42562 103 102 99
2.0942 0.0298864 -1.41113 103 102 99
2.08436 0.0295616 -1.39289 103 102 99
2.08571 0.0293986 -1.38231 103 102 99
2.08692 0.0292355 -1.37176 103 102 99
2.09379 0.0291532 -1.36503 100 99 96
2.1006 0.029071 -1.35831 100 99 96
2.10733 0.0289887 -1.35161 100 99 96
2.10336 0.0287611 -1.33816 100 99 96
2.10394 0.0285981 -1.32776 100 99 96
2.09961 0.0283705 -1.31439 100 99 96
2.11191 0.028369 -1.31153 100 99 96
-1.49507 0.0294258 -3.64864 79 81 93
-1.47254 0.0294232 -3.6434 83 83 95
-1.44325 0.0292833 -3.62119 81 84 92
-1.42749 0.029418 -3.63292 77 79 89
-1.41894 0.0297082 -3.66379 81 83 93
-1.40307 0.029852 -3.67652 77 82 91
-1.37344 0.029703 -3.6532 80 80 90
-1.33113 0.0292705 -3.5951 84 84 94
-1.30258 0.0291307 -3.57306 81 81 93
-1.27423 0.028991 -3.55107 84 84 96
-1.24609 0.0288512 -3.52912 80 81 89
-1.23562 0.029123 -3.55748 81 81 93
-1.23083 0.029541 -3.6036 80 80 90
-1.22614 0.0299772 -3.65179 79 79 89
-1.20903 0.0301209 -3.66423 79 81 91
-1.19782 0.0304199 -3.69551 79 79 89
-1.1805 0.0305726 -3.70893 79 79 89
-1.16294 0.0307252 -3.7223 78 78 88
-1.14514 0.0308779 -3.73561 80 80 90
-1.12711 0.0310305 -3.74887 79 79 91
-1.10331 0.0310278 -3.74334 78 77 92
-1.07952 0.031025 -3.7378 76 75 90
-1.05043 0.030867 -3.71358 74 74 86
-1.02676 0.0308643 -3.70807 70 72 84
-1.00308 0.0308616 -3.70256 68 70 82
-0.974474 0.0307036 -3.67845 70 72 84
-0.955725 0.0308561 -3.69155 70 71 86
-0.932047 0.0308534 -3.68604 68 69 84
-0.91294 0.0310059 -3.69905 66 68 80
-0.893595 0.0311584 -3.712 62 66 80
-0.869679 0.0311556 -3.70644 59 60 75
-0.845764 0.0311529 -3.70087 59 58 73
-0.813661 0.0308398 -3.6585 65 60 76
-0.789983 0.0308371 -3.65299 68 68 80
-0.770161 0.0309895 -3.66583 71 71 83
-0.754057 0.0313061 -3.69802 69 71 83
-0.741505 0.0317961 -3.75054 71 73 85
-0.720789 0.0319575 -3.7642 70 72 84
-0.689087 0.0316263 -3.71986 72 74 84
-0.654439 0.0311309 -3.65636 74 76 86
-0.627383 0.0309731 -3.63261 69 71 81
-0.603586 0.0309704 -3.62708 70 76 83
-0.588838 0.031451 -3.67806 69 75 82
-0.567618 0.0316123 -3.6916 69 75 82
-0.543324 0.0316095 -3.68595 67 72 81
-0.51903 0.0316067 -3.6803 68 73 82
-0.497304 0.031768 -3.69373 67 74 83
-0.480347 0.0322665 -3.74625 67 74 83
-0.463006 0.0327923 -3.80176 71 78 87
-0.442539 0.0331448 -3.83704 71 73 83
-0.419347 0.0333241 -3.85218 71 78 87
-0.393722 0.0333212 -3.84622 73 79 86
-0.366083 0.033136 -3.81926 77 81 86
-0.340598 0.0331331 -3.81333 81 85 90
-0.311734 0.0327749 -3.76657 83 88 91
-0.289628 0.0331273 -3.80147 105 104 108
-0.270025 0.0338621 -3.88007 115 118 121
-0.24955 0.0346331 -3.96258 130 134 139
-0.230815 0.0358594 -4.09682 146 153 157
-0.205697 0.0362933 -4.14026 196 202 201
-0.182093 0.0371732 -4.23436 254 255 249
-0.153482 0.0371699 -4.2277 254 255 252
-0.124872 0.0371666 -4.22104 254 255 252
-0.0962615 0.0371633 -4.21439 254 255 252
-0.0672535 0.0369416 -4.183 254 255 252
-0.0385721 0.0367108 -4.15066 254 255 252
-0.0103051 0.0367076 -4.14408 254 255 252
0.0179619 0.0367044 -4.13751 254 255 252
0.0462289 0.0367011 -4.13093 254 255 252
0.074496 0.0366979 -4.12435 254 255 252
0.102763 0.0366946 -4.11778 254 255 252
0.13025 0.0364731 -4.08674 254 255 252
0.158349 0.0364698 -4.08021 254 255 252
0.186448 0.0364666 -4.07367 254 255 252
0.214547 0.0364634 -4.06713 254 255 252
0.242646 0.0364602 -4.06059 254 255 252
0.269124 0.0362387 -4.02979 254 255 252
