ply
format ascii 1.0
element vertex 728
property double x
property double y
property double z
property uchar red
property uchar green
property uchar blue
end_header
-4.364435209649367 1.381106765492568 12.064398500561889 188 189 183
-4.221399380582137 1.547483356221328 3.737241003155883 79 50 30
-4.225508047955794 1.803224475606093 7.303487155080016 4 3 2
-3.397649003880782 -1.106959430949083 1.696298334241088 69 89 105
-4.042705072778030 1.366271884663711 2.105356905102904 70 47 37
-4.338617636578841 1.215460689290175 13.742783758282837 174 167 159
-3.320714070218368 -1.080338566080919 1.692423078656371 68 86 103
-3.912903262990279 1.189235599263320 5.617916557431395 123 73 29
-3.934413983243270 1.448392303212295 2.324330541730101 73 46 33
-3.983026518243117 1.238252551777968 11.807424041867430 142 97 54
-3.943380429166122 1.336059482319961 11.498058530926878 147 101 60
-3.828556253331466 1.350486190541396 4.767968628049070 116 69 28
-3.823220803159042 1.346289069874892 4.556839439511473 109 65 27
-3.248710944073959 -1.262891857401720 1.646510812878783 59 78 92
-3.776531888860030 1.571893127186904 13.518678400159057 179 174 165
-3.751541807072921 1.291620166524062 5.486391994595701 132 87 45
-3.760541512387557 1.722787292225966 9.281162712216551 170 121 73
-3.693935706036849 1.405197532399306 3.666967603802855 43 24 14
-3.701231314557357 1.246752650960097 10.967917415738279 172 126 69
-3.714680387395187 1.924522311909804 3.229809972882445 21 26 25
-3.684014274495406 1.578298480733046 3.103397104382689 15 18 15
-3.604412629025741 1.513671787007461 2.559505197644408 66 35 19
-3.392981244939132 1.533376605733046 2.270916196942504 59 24 13
-3.523688985722823 2.014175327046523 2.837512228131469 7 13 13
-3.355774952786727 1.213884265645156 1.905169698834594 45 68 92
-3.412487580197616 1.708387763722548 7.409647318959411 158 92 50
-3.383337690251632 1.269650848134170 12.040543291211304 126 79 40
-3.443173243420882 1.843287856801162 4.852147552609617 43 55 52
-3.324044896977706 1.153167636616836 11.822995159268553 149 98 53
-3.299785806554122 1.385347278340468 12.159495565533813 102 55 20
-3.491853429692550 1.689050586445937 10.850724432110960 32 59 35
-3.186650468724532 1.290907294972548 9.590242120862181 43 107 103
-3.291620089429183 1.841862113698134 8.361296597361738 137 119 99
-3.265180065053268 2.043532760365615 4.044232103467161 28 35 34
-3.226168467419906 2.035391719563613 2.818004819989379 13 19 20
-3.194692685025497 2.004794986470351 4.289190981030638 7 15 13
-3.231428577321334 1.737303645833144 11.597708437085325 26 46 22
-3.099280311482711 1.469562919362197 9.012651416897947 179 179 170
-3.183296515363021 1.907766731007705 11.339602682233030 107 108 69
-3.063246800320907 1.541815669758925 8.918451163411314 112 116 108
-3.104974343198104 1.741804034932265 7.690509858966048 166 106 61
-3.135060741322799 1.576962859852920 9.754327032208616 85 179 163
-3.115611626523299 1.545585544331679 11.671416017651731 68 47 18
-2.905453397649093 1.726994903309951 9.789447042584593 82 193 172
-2.852118923085494 1.987506778462539 4.364973518490965 91 110 120
-2.789954854863448 2.182926566823134 3.558900091290648 3 6 4
-2.680889560597701 1.254010112507949 12.148076269269165 133 88 53
-2.869762374776168 1.736709029896865 11.625905010342771 40 45 27
-2.845751716512008 2.208498389943252 10.394994709134275 40 40 34
-2.649989082234664 2.027192027791152 3.975315305829222 84 103 109
-2.775233461278243 2.005200298054824 9.946820351720030 55 60 54
-2.653859331029220 1.787458331807265 5.387659761548216 51 46 40
-2.508993818181319 1.678417117818007 2.252449247479613 116 83 65
-2.349198057072921 0.653625877125868 1.856880399823363 52 73 96
-2.040662242787643 -0.674639551417223 1.668467733502562 56 79 93
-2.078361465352340 -0.022938577906480 1.751708242535766 64 86 110
-2.459204627888961 2.183997543080459 2.858770582318480 25 36 38
-2.350555612462325 1.363746555073867 6.565214488148864 141 80 35
-2.300541593449874 1.735444934590468 2.493540975690062 54 26 15
-2.445940210240646 2.056546600087295 4.975840065121824 37 57 80
-2.391452505009933 1.833243758900771 11.552958938718016 147 143 128
-2.238909675496383 2.167553336842666 3.219712469220336 51 69 71
-1.996455861943526 1.015969188435683 1.869087907910521 48 67 91
-2.267119123357101 2.659314067586074 13.716557714581665 178 174 164
-2.139848424809737 1.385693938954482 12.317024442792114 182 191 193
-2.132466985600753 1.816090972645888 10.851937267422850 165 171 172
-1.885515643971725 1.395920188649306 1.899709913373168 43 62 86
-2.015633775609298 1.587398441060195 11.837606880307371 155 102 56
-2.067788793462081 2.084155948384414 6.195507857442077 72 73 72
-1.975921584981246 1.851479442341933 5.106654379010374 122 136 151
-1.925881339925094 1.424461276753554 12.183431360364136 116 75 42
-1.854352905171676 1.626547725422988 8.887845906853849 193 151 100
-1.850635959523482 1.792550952656875 2.590926382184203 58 30 17
-1.780958368199630 1.883356960042128 8.231266620993788 184 128 76
-1.691536380666061 1.873863609059462 2.811501237988646 63 32 17
-1.625518276112838 1.558133514149795 9.807410571217710 189 143 86
-1.248293592351241 0.163754852040419 1.789464208722289 49 71 91
-1.481038286107345 2.122140796406875 3.898773882031615 83 86 83
-1.439550830739303 1.603883178456435 9.967902156949217 174 126 75
-1.393211557286544 1.999788196309218 5.435554239392454 32 29 25
-1.268564416783614 1.812878043873916 2.055682870984252 121 101 91
-1.251338436024947 1.691340835316787 12.149593088269409 127 83 48
-0.925312234776778 -0.792942373530260 1.686563226819213 39 57 67
-1.249370052235885 1.633407027943740 10.639348003506834 172 124 68
-0.711034967320724 -1.872286050097337 1.455421182751830 32 38 36
-1.237261011021896 1.568898112996230 11.401183340192015 181 140 83
-1.125657274144454 2.303594024403701 6.172377798199827 43 46 43
-0.811850263493819 0.934880645497451 1.865763399243529 45 64 87
-0.583500100987716 -0.660504429118028 1.688864442944701 42 59 71
-0.950936033147140 2.562086971028457 12.570649835705932 162 143 131
-1.019405080693526 2.397904308064589 13.912438127637085 181 176 167
-0.559500409978194 -0.676242439524522 1.647971365094359 42 55 67
-0.710235788243575 2.234394939168105 12.462457868695434 135 112 96
-0.681222631352706 2.060837657673964 11.309252473950560 133 112 114
-0.657683088200851 2.514682681782851 8.365724954247648 19 19 23
-0.690077497380538 2.036628635151992 7.369670543313201 158 90 48
-0.750290586369796 2.054156215413222 10.648950073361570 97 72 74
-0.602438642400069 2.453018577321181 8.155252385378057 69 67 73
-0.594044877904220 1.598377616627822 6.885224077344115 108 46 23
-0.516373350041671 2.337295921071181 8.890779766678984 50 60 62
-0.591023637669845 2.116554172261367 7.339926931500609 157 92 50
-0.274907781499190 0.249505193455824 1.805305692792113 45 66 86
-0.512140943425460 2.131378562672744 11.391950342297728 120 107 105
-0.430517389195724 2.193199069722304 2.457151147961791 52 32 21
-0.120094968694015 -0.884895889536729 1.637604448437865 33 44 48
-0.406698896306319 2.910920055134902 3.322322103619750 8 11 11
0.026366994959550 -0.982714741007677 1.701296541333373 32 42 47
-0.117333604710860 1.536397369130263 12.421458932995971 164 31 57
-0.115190698521896 2.756609828694472 5.883441898465330 5 9 11
0.044947908503251 2.621212394459853 3.530988905072387 6 6 4
-0.194781972783370 1.881668956502089 12.101267549634155 115 69 33
0.024601266962724 2.450062186940322 9.344161007046873 80 106 128
0.009682462794022 2.563859851582656 4.203634950757200 34 46 50
0.127693460566239 0.006836326344618 1.767554971814330 45 66 82
0.192288683039384 -0.859183399454942 1.616556856274779 27 36 36
0.032329843622880 1.680017860158095 12.120681497693237 113 68 30
0.119561956507401 2.485580833180556 8.420529785990889 34 9 22
0.207310960871415 1.833036811574111 12.932199213147339 181 177 170
0.151248739344315 2.365997703297744 10.588814708829100 121 140 137
0.222586916071610 2.319835098012099 2.462980482220824 54 30 18
0.267988966089921 2.536838920338759 4.802327606320555 8 10 10
0.240673349482255 2.183559329732070 8.829848620534117 146 127 116
0.309365556818681 2.075431258900771 9.207166406750853 187 169 154
0.634893224817948 -3.526921360270372 1.192774507641967 25 32 29
0.409498499018388 1.919601829274306 12.099056932568725 114 66 30
0.455951021296220 1.971446902974257 10.051054212689573 182 142 94
0.404409216028886 1.974074752553115 9.821312877774412 178 137 90
0.498860643488602 1.190401466115127 1.879311296582396 45 62 83
0.495825574976640 2.310233504994521 3.210566732526000 81 37 15
0.705685422999101 -0.242152778879991 1.717832777142699 42 60 73
0.683660791498856 2.372023971303115 13.062227937817749 179 176 168
0.720221803766923 1.860215575917373 2.018327924847777 52 57 70
0.674986646753983 1.992670924885878 10.223077032208616 169 138 101
0.870974825007157 1.789433391316543 12.204429361462768 135 72 55
0.988336370569901 2.352102191670546 7.446539554238494 155 95 54
1.012646482569413 1.942132861836562 5.609709951520140 100 52 19
1.077174947840409 1.970746906026015 6.518367621541198 123 70 30
1.026454732996659 2.191378982289443 3.509865972638305 43 19 8
1.018465803248124 2.353547008259902 7.402353319764312 154 97 56
1.234415815455155 2.167327316029677 10.547493431210691 101 91 72
1.193885610682206 2.361625583394179 2.547187063336547 40 23 14
1.115070150477128 2.213745982869277 9.400390717625791 184 151 99
1.288402841669755 2.372389705403457 7.171801182866271 124 79 55
1.345252321345048 2.214729697926650 6.240748140454466 75 79 81
1.242628858668046 2.255932719929824 3.704729768872435 44 28 19
1.250122831446366 2.331559570057998 2.751011106610473 29 13 6
1.235901163202958 -0.981701462046495 2.140495988965209 39 55 65
1.255679891688065 -1.148409931437364 2.012005064130004 43 55 62
1.262303159815507 1.766681583150039 12.142313215375122 120 68 40
1.336745069605546 -1.039362756983629 3.945519182324584 66 64 66
1.248110101801591 -0.672804920451036 2.152345869183715 37 51 64
1.383782194239335 1.943189532979140 12.431687090039429 163 55 73
1.390812204462724 2.264735133870253 11.516336652875120 139 149 136
1.456754968744950 2.519970805867324 7.872813421726401 114 119 113
1.456532285792069 -0.400113432185045 3.949005338788207 64 77 85
1.204447076899247 -0.025396196619859 1.992372724652465 29 41 55
1.554234788996415 1.940398605092177 12.311092588544067 149 48 60
1.509560392481522 2.634709747059951 8.923465404153044 52 62 57
1.742695139033036 3.161515147908339 13.500620576977905 176 171 164
1.676726148707108 2.386606128438125 8.730194482445890 23 24 22
1.642408178431229 -1.293445436732164 4.140840742230590 38 58 75
1.825832651240067 0.446208150609145 2.512403699994262 98 83 78
1.709342764002518 2.432329566701064 7.473917129874404 160 102 53
1.731550977808671 2.410902412160048 11.014413091778929 172 180 177
1.872427747828202 2.431441695912490 6.373505565762693 2 0 2
1.720500276667313 2.486961753590712 5.144405338406736 3 4 3
1.798937128168778 -0.942814199702134 5.309294674039061 76 64 63
1.719916627985673 -0.130863039271226 3.791657659650023 60 75 82
1.802485273462968 2.679751308186660 9.200190875172789 56 119 151
1.642305181605058 -3.531980200187555 2.119509908795531 13 18 16
1.719975755793290 -4.134802250639787 5.095681879162963 46 56 61
1.742668436152177 2.428344161732802 12.650456640362915 144 111 108
1.649914072138505 -4.095921962038865 2.987045499921019 36 46 51
1.932987974268632 2.739158542378554 4.890591594815428 104 117 118
2.082439706904130 3.141691596730361 13.332512113690552 178 174 167
2.042299078089433 2.287061126454482 11.908097240567381 153 110 64
2.144171999079423 2.721183212025771 7.759003716945823 143 131 121
2.123557851893143 3.090429218037734 12.495794031262573 121 84 49
2.165235326868729 2.255665214284072 6.517280790448362 123 78 38
2.302159593683915 2.544718177540908 10.938993427395994 138 150 144
1.937130258661942 -4.456892578379502 4.852363798260863 19 26 27
2.200689123255448 1.633513362630019 2.657117578625853 46 61 75
2.363549516779618 0.489851386769423 3.355538580060180 2 6 8
2.246149824244218 0.247769029362807 2.643626901745971 98 81 75
2.328128145319657 2.528656871541152 7.429561051964934 161 107 60
2.313858793360429 0.271730811818251 3.256360265851195 52 71 89
2.389205740076737 0.426324517949233 3.617341253400023 60 75 82
2.337510393244462 -0.910500137583604 2.431505415082152 37 49 53
2.394102857691483 0.301216037495741 3.021613809704955 7 3 0
2.275796697718339 -3.924734799639573 5.039730999112304 120 107 106
2.434278295618729 0.141659887059340 3.666897031903441 69 87 94
2.559662149531083 2.266224773152480 11.940097066998655 144 98 56
2.686520383936601 2.492279918416152 10.557277176022703 91 116 144
2.638862894159989 2.485213191731582 6.277261349797422 155 177 200
2.776688860041337 3.418678195698867 13.041985723614868 171 168 159
2.788143442255692 2.063286693318496 6.905775520444091 123 76 30
2.729385183436112 2.695043952687392 7.858891274273570 180 157 126
2.806496904474931 -1.120566694514146 2.151266309857543 4 9 7
2.316211031061845 -4.377004949824205 4.928532812237914 6 10 12
2.304261015040116 -4.344044892565599 5.045993301510985 48 60 62
2.915418909174638 2.056588084920058 2.903444978833373 1 2 2
2.701352403742509 -0.746279089228502 2.162739488721068 7 10 8
2.912819192988114 2.245249183400283 10.696088049054319 164 129 81
2.998424814326005 2.140203387959609 11.107855531811888 157 119 74
2.448345945460038 -4.286902694479814 4.993974182248290 51 62 64
3.030830190760331 1.515105159505019 3.001352045178588 4 2 2
3.242935941797929 2.354235084279189 10.415196392178709 147 111 71
3.291858480555253 2.675600917561660 8.177192259073431 147 102 53
3.136888311487870 2.153107555134902 11.611340019345457 148 113 73
3.365550802332597 2.801701934559951 8.198825437069113 147 104 54
3.449703024012284 2.488942058308730 10.486491653561766 152 115 85
2.350171373469071 -8.490511982218614 4.422213289380249 133 134 134
3.435843275171952 2.816030891163955 8.772729668259794 161 125 87
3.532269285303788 2.964624316914687 8.871795389294798 154 121 84
3.512923048121171 2.175498874409804 12.241454813122925 101 90 70
2.808455274683671 -4.268226830736985 4.753726932645018 12 13 13
3.621244238001542 2.583737762196670 6.447563383221800 17 19 21
2.911675737482743 -4.188682405726304 4.762442085385497 5 8 10
3.790140913111405 2.171182067616591 12.762568208813843 169 169 161
3.789466665369706 2.480333240254531 6.772761556744749 112 66 25
3.792608068567948 2.482288272603164 6.657784316182310 113 70 27
3.775214002711015 1.801179797871718 6.017091366887267 11 16 18
3.672529028040604 1.541359336598525 5.830666277051145 9 16 16
3.875379369837479 3.101948650105605 10.582713815808470 124 124 118
3.222710416895585 -2.818049936072221 5.159484598279174 68 85 86
3.940776632410722 2.820379169209609 7.455594453454192 148 105 63
3.935292051417069 3.182013900502334 6.387478205800230 52 67 74
3.112897680384354 -3.959328799025407 4.315050098538573 27 36 42
3.159599111658768 -4.023808865324845 4.087824794888671 28 45 55
4.025141523462968 3.010893256886611 9.730098340153868 164 185 175
3.367512510401444 -3.278959895001044 5.102741930127318 14 24 29
4.085441396815018 2.667855651600966 11.225670072674925 167 190 198
3.256767080408768 -3.825702457205644 6.376986477017577 12 24 29
3.312678144556718 -3.751558570639482 5.088106128812011 27 45 49
4.282962606531815 3.134628207905898 10.460813018918211 47 55 57
3.307394788843827 -3.838916032091966 7.225728187203582 145 144 131
3.346792982203202 -3.945655493513932 6.748169514775451 9 15 15
3.284604833704667 -5.028873412386766 4.580242845654662 11 23 31
3.362575338465409 -3.916281907336106 6.700654837727721 9 16 17
3.462413595301347 -3.379325634316793 5.308565590024169 57 71 73
3.382888601404862 -4.011959998385301 5.004559013486083 62 80 86
4.406980321985917 2.503914268239150 11.954264375806030 129 79 43
4.400382803065018 2.766838939412246 7.660902264952834 158 125 81
3.617610738856034 -3.645009754673829 7.223082098603423 218 180 149
4.483403013331132 3.101333530171523 10.293040010571653 44 57 57
2.786247060877518 -8.475911228434434 4.340550157666382 89 102 108
4.501375959498124 2.309132011159072 12.219407770276245 118 91 66
4.855572507960038 2.957644374592910 7.608201715588744 153 120 76
3.539597318751054 -5.229455797449937 4.922312948346312 17 27 28
4.681753919703202 2.323835761769423 11.841551515698606 119 89 60
4.728686140162186 2.439464004262099 12.228749963879761 128 98 70
3.691940115076737 -4.285108356253495 4.855414602399047 17 26 29
3.844328687769608 -3.715136198775163 7.090417060494597 18 29 27
4.956248090845780 2.352167041524062 12.235782358288940 104 89 66
3.933611677271561 -3.781193344370713 6.990720543503936 13 24 24
5.298954771143632 3.301121623738418 12.924609396100220 166 168 161
4.062771604639726 -3.631805776135316 5.742738220334227 0 5 5
5.214421079737382 2.491819770558486 12.040066454053100 60 36 12
5.243722723108964 2.759527118428359 9.503172490239317 162 132 89
5.388667867762284 2.891374023182998 8.267824533820326 141 107 72
5.224817083460526 2.769449146016250 13.341980192303833 164 162 152
5.487450407129960 2.707580001576552 12.313911649823364 72 42 25
4.209038541895585 -3.904798476473680 5.215382072568114 24 42 50
5.780606077295976 3.507446201069961 7.798471960663970 166 169 160
5.410899923426347 2.494792373402724 11.916432354092771 118 89 53
4.150932119471268 -4.414662210718980 5.032109710812743 12 21 23
5.518972204310136 2.887451560719619 10.018371078610594 145 113 78
5.525536344629960 3.087893398030410 12.493057939648804 160 152 140
5.601724432093339 3.307725341542373 8.452843103051359 146 110 75
3.448641584498124 -8.186529724375596 4.370264265179809 78 89 86
5.766826437098222 3.347479255421767 10.773104402661497 127 104 89
5.751490400416093 3.234645755513320 11.977281782269653 104 78 51
4.211583898646073 -4.672297327296128 4.924995872616942 16 26 24
4.419743345362382 -3.795832692162385 6.706609937787230 18 28 34
3.557948873621659 -8.058223335520616 4.403425666928467 78 89 86
6.135869787317948 3.859285266621718 11.605927202344114 58 49 34
6.182740972620683 3.928433807118545 12.738578531384643 166 173 170
6.122902677637772 3.927597911580214 9.976236316800291 88 66 38
4.561193273646073 -3.765607564226976 6.543487999081786 18 31 36
3.533573911768632 -8.201702205912461 4.549315187573608 10 12 13
6.172972486597733 3.816346557362685 7.580883983016188 115 121 99
4.623740957361893 -3.739644049183717 6.501674029469664 17 31 35
4.873525426966386 -3.600761352555146 6.269011828541930 228 235 238
6.167878912073808 3.699795634968886 8.267631981015379 43 38 26
6.263563917261796 3.301370055897841 13.033591482281860 180 179 174
5.646086500269608 -0.460149614588609 6.869599911809142 203 223 222
4.830263898951249 -3.573309420124879 6.256848547101195 217 225 226
6.334466741663651 2.913725288136611 11.697074148297483 158 150 146
3.816827581507401 -8.262539474741807 4.468326065182861 109 128 133
6.393641279322343 2.678763301594863 12.393515321850952 171 186 187
6.463731573206620 2.960986049397597 9.708372923970396 195 218 216
4.926394270044999 -3.619726567046037 6.186119529843505 176 195 205
6.422306821924882 2.699916274769912 10.349334451794798 179 197 202
6.383696363550858 2.786351592763076 11.934299680829222 151 167 167
6.331887052637772 2.415440471394668 13.596392366528686 182 183 181
5.003434942347245 -3.582164286152711 6.030757043004210 20 35 39
6.566843793970780 2.607177646382461 10.570584032178099 189 207 211
6.522308157068925 2.917725475056777 11.541776153683836 178 195 200
2.960341737848954 -12.053276626841416 4.239060613751587 45 48 43
5.352840231043534 -2.797904996649613 5.326975080609496 5 8 9
6.441512868982987 2.663004310353408 13.250272485852417 174 178 176
6.446375654322343 2.122785003407607 12.866822454571899 174 182 181
6.572377012354569 2.368859203084121 10.634684774518187 198 199 202
6.551411436182694 2.319258601887832 8.360905441880400 201 221 220
5.057690427881913 -3.273976725043049 7.176184627652343 43 55 58
4.065668867212968 -8.148577778117051 4.574835750699219 11 19 18
5.177327917200761 -3.367761044279924 5.718185875058349 15 28 27
5.238907621485429 -3.268916560785165 7.132673415780242 3 9 8
5.630819128138261 -1.769206135050645 7.416871640324767 204 222 222
6.517580793482499 1.360138805134902 12.280123445630249 184 184 185
6.630101011378007 1.736526401265273 11.833063814282591 185 201 206
5.322803304774003 -3.285002061614087 5.088005277753051 5 11 11
6.614352033716874 1.813538463338027 11.581637355923826 184 202 206
6.607164190394120 1.328522594197402 9.909087988972837 200 219 221
6.638253973108964 1.360427291615615 10.244429084897215 194 210 215
6.623355672938065 1.360362441762099 10.072053167462522 193 207 208
5.368498609644608 -3.347269224451175 7.006964895367797 3 9 8
6.542827413660722 0.619894654973159 13.177706453442749 182 182 181
6.658175275904374 1.084686191304336 11.435378048062498 186 203 209
5.551353262049393 -3.190805500821462 5.120543930173095 10 16 15
6.620443151575761 1.918957622273574 13.424513551831421 178 181 181
5.546672628504472 -3.044688610808244 5.651269886136229 9 17 17
5.723416135889726 -2.499924270884385 5.307123396039183 5 11 11
6.579277799708085 0.846268565877089 10.745131704449827 191 208 213
6.602612302881913 1.183916480763564 10.134236309170896 200 201 203
5.702573583704667 -2.458393721358171 5.280100319028075 4 8 9
5.643244550806718 -2.850848792569032 8.186287346720869 210 227 226
5.580875204188065 -2.759465961233964 5.232375595212157 1 3 5
6.676164434534745 0.967793376668105 11.964875433087524 181 189 194
6.618636892420487 -0.233780233637681 13.082487794995483 194 197 200
5.649376676661210 -3.453255339042535 5.831719133496459 3 12 13
6.648280904871659 -0.124455063120713 12.888996812939819 185 190 193
6.784510419947343 0.492559821828017 10.279151174664671 201 217 226
6.631862447840409 -0.285721866862168 13.067669126630005 193 197 200
6.792807386500077 0.054345042927871 11.303453180432495 194 210 218
6.809837148768143 -0.140605776087632 9.743050071835691 98 181 156
5.844297216517167 -3.340507312194696 6.495114657521422 39 42 37
5.883480833155351 -3.274945363850584 5.879614326596434 5 10 9
6.632737920862870 -0.279685823695054 13.064997884869751 195 199 202
4.567093656641679 -8.130191890971055 4.588102552533325 18 29 24
6.783845708948808 -0.017582027689805 12.462117883801636 195 199 205
6.820530698878007 -0.118260948435655 9.921259734273130 144 154 166
4.554365919214921 -8.171123592631211 4.520508501172241 56 74 71
5.849612997156815 -3.690493373648515 8.255229208111938 213 228 227
6.855843351465897 -0.161958782450547 11.133168909192261 199 213 221
6.816578672510819 -0.608525125758042 11.870511505246338 186 186 200
6.028516576868729 -3.470108239428392 6.173402282834227 186 212 207
6.846079633814530 -0.808989612833848 11.528452369809326 194 208 219
6.878870771509843 -0.824140875117173 9.941121790051634 190 202 216
6.022457883936601 -3.657002954260697 7.567244741559203 168 187 185
6.878194616419511 -1.001233904139390 9.805008146405394 168 178 192
6.094705389124589 -3.583343862072816 7.149032208562072 172 191 196
6.187790678126054 -3.404014228360047 5.415763828396972 178 197 202
6.203860090357499 -3.371140568034043 5.329314205289061 85 106 109
5.696762846094804 -5.544308988825669 3.921153757214721 12 23 19
6.947319791895585 -1.065822927729478 11.630836460232910 176 187 199
6.932483480555253 -1.127586452738633 9.323797556996519 206 215 213
6.304736898524003 -3.293974215612998 5.138714763760741 0 7 14
6.296946333033280 -3.413142798916688 5.228534433484252 43 67 70
6.904066846949296 -1.628124444262376 11.929773304104980 171 183 192
6.911223219019608 -1.753176777140488 11.533020946622070 174 190 201
6.310863302332597 -3.551551102177491 7.204453680157836 13 29 34
6.971039579493241 -1.615151374117722 11.265153143048462 196 203 213
6.193857954127030 -4.015398232714524 5.059670660138305 94 110 109
6.226843641382890 -4.000776438490739 4.435610744595702 30 47 40
7.005436704737382 -1.674462406412949 11.978947374463257 176 182 197
7.029727743250565 -1.781133382098069 10.829659196973022 193 198 210
7.026886747461991 -1.727251021639695 10.388743373990234 180 191 206
6.408824728113847 -3.530827014223924 6.586070749402221 76 95 96
7.006835744959550 -2.144793360010972 12.306490633130249 36 28 41
7.035589025599198 -1.919241993204942 9.063453528523620 203 216 214
6.289405630213456 -3.538660867587915 7.778857204556640 203 217 217
6.533122823816972 -3.416770210937848 7.391909870743926 88 104 108
6.529812620264726 -3.648817537800660 7.001223239541228 116 130 126
6.574917600733476 -3.389969623164525 5.892784330487426 124 146 146
7.093042181116776 -1.883823601977219 10.989025566220459 167 177 192
7.133351133448319 -1.800203411356797 10.358568164944824 122 134 149
6.642959402186112 -3.584561614767900 7.440255078911956 223 229 229
6.566056058985429 -3.269670714141121 7.954082586296077 202 215 213
7.154251859766679 -1.959308831469407 10.467203828931030 209 214 229
6.538743780237870 -3.645278064982286 6.739621612668212 236 243 241
6.870675848108964 -2.927642791048875 8.286226812243637 215 229 227
6.220612333399491 -3.474548100010743 8.035297702491459 202 216 216
6.544145391565995 -3.698264955059877 6.736689898610289 158 172 164
7.059439466578202 -2.524804799334397 12.193176481366333 182 182 193
4.616116331202226 -9.653642265574327 4.161933157086548 132 150 153
7.112901495081620 -2.489899365679612 12.008914205670532 176 176 187
6.979450033289628 -2.978800116555085 7.988626587629493 223 236 235
7.122854993921952 -2.319584994093766 11.936279270291504 186 187 200
7.149661825281815 -2.467012195364823 9.190155717969116 215 224 221
7.059183881861405 -3.060189737455239 7.778571594000037 202 216 214
7.169014738184647 -2.897119997517457 12.042215559125122 203 203 213
7.218528555018143 -3.119022218958726 9.547179433942016 168 180 188
7.204146192652421 -3.205801753775468 7.215004655957396 115 127 121
7.208222196680741 -3.113293348328462 7.296826216817077 77 94 84
7.211809919459061 -3.120489506499162 6.210537049412902 92 108 99
4.652158544642167 -10.203691093699327 4.102896902203735 130 147 151
7.239356802088456 -3.429818748013367 11.900124284863647 172 177 182
7.232293890101151 -3.589764027373185 9.187709543347534 202 217 214
4.547228620630936 -10.657983867899766 4.738810512662109 12 28 28
7.241131589991288 -3.566957174317231 9.262955400586304 201 215 213
7.277541921717362 -3.430669291393151 11.624017927289184 197 204 212
4.781237409693436 -10.380046455637803 4.292989942670044 12 25 25
7.217865751368241 -3.881418196932664 10.484070274472412 198 209 216
7.319634245020585 -3.659971265570512 7.511428091168578 192 208 207
4.621088789087968 -10.812821476237168 5.824857923627075 18 35 32
4.745275304896073 -10.713317482249131 5.650340292096313 24 38 33
4.742924497706132 -10.450669376627793 4.576475832104858 12 20 18
4.806631849390702 -10.510483829752793 5.865484687924560 25 40 35
7.277472303492265 -3.938635914103379 9.547639224171814 189 206 217
7.279269025904374 -3.877889840380540 9.795312139630493 194 212 224
4.900500105005936 -10.353917209879747 4.228182289242920 12 24 25
7.273917005640702 -4.441647140757432 10.443255636334595 195 207 216
4.890076444727616 -10.405120937601914 4.280917379498657 3 12 14
7.326316640955643 -4.369642226473680 10.132441494107422 177 193 205
7.456830785853104 -4.129545657412400 9.283784243703064 229 254 255
4.964121626002030 -10.391623585001817 4.276899788022217 2 9 10
7.312649534327226 -4.239800362364640 10.226571771741089 202 217 224
7.092342184168534 -5.218817918078294 7.135339412331756 206 219 218
7.074205206019120 -5.107689349429002 6.377817365765746 203 217 217
7.352166936976151 -4.893488971964707 11.027156326413330 217 233 242
4.985505865198808 -10.575766174570909 4.562898847699341 10 17 16
5.073616788965897 -10.567342369334092 4.513855430722412 88 97 98
7.449024961573319 -5.191197721735826 10.951964828610596 188 203 211
4.802279279810624 -11.414345352427354 4.053060266614136 88 105 109
5.109828756434159 -10.720843403117051 5.263864967465576 11 20 17
7.384471700770097 -5.359448282496324 7.176273557782348 207 225 225
5.134809301478104 -10.748279659525743 5.317352745175537 31 47 44
7.411277578455643 -5.246494142786851 10.828490230679687 193 214 218
7.455363081080155 -5.260460703150621 11.330031606793579 144 159 168
7.438663290125565 -5.331023065821519 7.212958309292968 177 194 194
7.549592779261308 -5.274480311648240 8.758060547948059 208 218 216
7.451077268702226 -5.381162254587998 10.625897857785400 207 234 239
7.495425031763749 -5.435484258906236 9.717281434178528 98 128 146
5.372508810145097 -10.487804977671495 4.355698320508179 44 55 57
7.540748403650956 -5.807569830195298 10.955600473523315 187 204 214
7.581180379969315 -6.028614847437730 9.801150056958374 190 205 216
7.629159734827714 -6.041199295298448 9.303799602627929 198 211 221
5.318690107447343 -11.000133602396836 4.014978859067138 89 108 111
5.438741491419511 -10.690940468088975 5.012142393231567 24 40 35
5.526904867274003 -10.729308216349473 5.105864975094971 42 59 52
7.669663236719804 -6.602092354075303 9.940586778760132 201 216 229
5.503725813013749 -10.916803447977891 4.050914260983642 81 100 104
7.649637983423905 -6.501759378687730 10.797449323773559 184 199 210
7.709320829493241 -6.542001573817124 7.289929065346892 220 232 232
7.651381300074296 -6.658468811289659 9.714480731129822 152 168 180
7.696841047388749 -6.825916616694322 10.089360687375244 187 203 216
7.658114240748124 -6.993487207667222 9.220160100102600 140 157 171
5.674382017237382 -10.791420070902696 5.274481985211548 52 69 70
7.706123159510331 -6.953224270121446 10.660232040524658 205 218 230
-13.706946565526291 1.246155174000869 8.750203046441252 199 212 214
-13.390294267552658 0.835505397542128 11.414916965604002 235 237 236
-13.397488786595627 0.825019748433242 11.229427787900145 227 230 229
-12.945143892186447 0.140501649602065 13.023800584912475 146 151 147
-13.471482469456955 0.888818176015029 11.607671949505979 236 239 236
-13.620420648473068 1.204754741414199 9.477631065488035 215 230 237
-12.926802350896164 0.725735576375136 11.985377523541626 161 117 88
-13.373945428746506 0.871045501454482 11.816041681409056 124 127 121
-13.283021165746018 0.807821662648330 12.357021066785034 138 135 125
-13.103480531590744 0.841339023335586 11.576307031750853 131 115 96
-13.420075609105393 1.312999160512099 8.237166974187071 217 224 223
-13.023107721226975 0.702777297719130 13.551254007458862 184 187 182
-13.306285097020432 1.332842262013564 7.964992377400573 94 99 98
-12.859014226811691 1.070004375203261 10.381857130170042 168 125 91
-12.841658784764572 1.249614627583632 7.706323373556311 248 230 203
-12.745022966283127 1.159510047658095 9.691051575780088 177 138 105
-12.353626920598312 0.803710849507461 12.321642610669311 159 114 83
-12.582085325139328 1.045817287190566 11.705901357770140 170 127 95
-12.504843427556320 1.063236625416884 11.505388948559935 167 123 90
-6.503318859952254 -8.083419410960069 4.969933960080322 21 24 17
-12.511453821080490 1.318513782246718 7.853730853140529 183 145 109
-5.797390236275954 -9.116713611857286 4.761704656720337 7 1 1
-12.385548307317062 1.211457164509902 9.172143313527281 173 133 98
-12.420999242680832 1.130175502522597 9.602233264088804 175 137 103
-12.324819280522629 1.164410979970107 9.315477344632322 174 132 97
-12.271216585057541 1.045250804646621 12.185050222516235 167 123 92
-11.902913286107346 0.692034156544814 12.836275789380249 125 124 112
-11.898636533635422 0.411950261815200 13.174979421734985 186 190 184
-11.882083608525559 0.389554651005874 13.144489023328003 159 164 157
-12.334257318394943 1.329571635945449 8.917592975735838 178 138 103
-12.133082582371994 1.112775237782607 12.571569177746948 166 128 97
-12.219458772557541 1.429586799367080 8.171093586325819 182 144 112
-11.803960992711350 1.587423713429580 7.712570744991477 181 145 110
-7.025281860249801 -6.480170099512925 5.760013792157348 14 15 11
-7.088939382451339 -6.419243423716416 4.858326170087035 225 194 176
-11.169231130498215 0.906008632405410 12.519592496991333 163 121 93
-11.354319764989182 1.490014941914687 9.020311925053770 181 142 110
-8.798392249959274 -2.792399494425645 5.478547784924682 37 40 34
-5.806854917424483 -7.913346378580918 4.927009079098877 31 30 22
-11.276031686681076 1.514315040333877 11.479103300213987 171 129 98
-11.279220296757980 1.680226714833388 11.399312708020384 176 138 105
-10.982454969304367 1.210135371907363 12.157942506909546 172 133 101
-11.162620260136887 1.542346389516005 9.449838969350035 176 136 103
-11.150614931004807 1.592399509175429 11.380495283246214 177 140 107
-11.143297864812180 1.616086871846328 9.679495904088194 179 138 106
-10.891924096959396 1.712346465809951 9.618977639317686 181 147 115
-10.717750741856857 0.686282785161147 13.440178129315552 184 184 177
-10.836723520177170 1.923183353169570 5.093405935406858 181 146 114
-10.272395326512619 1.345037372334609 4.491100523114378 176 137 105
-6.931982232945724 -5.393942920939317 4.977214309811766 207 206 218
-10.707556440251633 1.532593639119277 11.402549240231687 173 137 104
-10.603928758519455 1.524839790089736 11.096759531140501 175 138 106
-10.566292478459641 1.590022475941787 10.628030988812620 177 143 111
-10.832525922673508 1.954878242238173 7.412823769688781 175 139 110
-5.146687923687263 -8.244320480601182 4.781139585614380 159 104 69
-5.923859013932510 -6.827258198038926 5.088697168469603 17 13 6
-10.658661081212326 1.845505626423964 7.884948055684741 172 138 106
-10.405431463139816 1.970380695088515 6.211950394749816 174 143 113
-10.508918477910324 1.829364211781630 7.252391490578826 171 137 107
-10.643089486974045 2.097494991047988 5.214086029172117 173 144 116
-5.731541349309249 -6.757077543513169 4.828829500317748 103 51 26
-5.722067727464004 -6.915186970011582 4.734838220715697 125 72 44
-5.669291629212661 -7.209774582163682 4.749865982175049 142 87 53
-10.256856157201096 1.511757285817275 11.696884367108519 173 140 110
-4.741414188164039 -8.695611088053575 4.770396206021484 160 105 68
-9.972395135777756 1.539143951161513 11.899716350674803 171 137 105
-10.216194345372482 2.153135688527236 5.336504194379026 174 144 117
-10.046785547154709 1.796005637868056 10.652037355542356 172 138 108
-10.291065408604904 2.301922710164199 5.725892517209227 175 145 115
-9.903243734257980 1.652517707570205 10.322761270642454 173 138 109
-6.436301423924728 -5.084153144137254 5.005534860730346 169 122 94
-4.638970090764327 -8.619713871256700 4.773373100400146 162 103 67
-9.927428914922043 1.664114387257705 12.553106042981323 169 129 98
-9.961430742162033 2.078533084614882 7.038145455956633 168 134 104
-9.983475877660080 2.127293498738418 8.703518542885954 173 138 109
-9.939314081090256 2.228001983388076 4.877140257001097 168 133 106
-9.469543649571701 1.207209499104628 12.937575075268921 207 215 206
-9.571906282323166 1.557250411732802 12.434622499585327 167 129 99
-9.621596528905197 1.798451812489638 11.380514118313963 174 143 114
-9.345042898076340 1.564260394795546 12.595899316907104 163 122 91
-7.467030240910812 -2.326924173609605 4.929307672619994 169 129 96
-9.502271367924973 2.154597671254287 8.222816589713270 170 137 106
-9.403802110570236 2.143273742421279 8.348627093672926 173 139 107
-9.173563196080490 1.913235099537978 10.246658537030394 179 145 114
-7.101201726811690 -2.333164779917588 5.424263689160521 169 156 145
-9.037182046788498 1.861430080159316 9.911318394780332 179 144 112
-9.085769369023605 2.217683704121718 7.209934148430999 181 150 117
-9.106884672063156 2.264827640278945 7.098604652524169 181 151 116
-8.937367154973312 1.981374652608046 11.430297824979002 177 142 111
-8.918500377553269 2.026630313618789 10.243558618664915 180 146 113
-7.808973743336959 -0.547264425532212 4.764173004269774 168 173 176
-8.932298852818771 1.759309680684218 4.271472904324705 169 133 107
-9.015553666966721 2.382884891255507 8.862645778298551 183 151 118
-8.858318282979294 2.322204501851211 8.716420206666166 190 160 129
-6.635305120366378 -2.718070654646745 5.350079986691649 21 28 30
-8.712304307835861 1.874983222706923 12.625408384442505 188 153 118
-8.498014642613693 1.445744903309951 13.289278242230591 182 182 175
-8.753492071049973 2.329247863515029 8.265830490231687 197 169 141
-8.503408624547287 1.742475898488173 12.017300340771850 190 159 130
-8.738535596745773 2.123068721516738 10.268068525433714 188 159 129
-8.607951595204636 2.081993968709121 10.045462581753904 197 168 141
-8.781423522847458 2.402455718739638 8.001659020275051 198 169 139
-8.695616914647385 2.337654025776992 8.468610498547728 205 168 132
-8.587010814564987 2.166106136067519 9.024291488766844 199 175 151
-7.727601959126754 0.382061631901870 5.837012025952513 72 81 75
-8.577563955205246 2.264210136159072 8.225501838565046 202 174 150
-6.187906696217818 -2.940842984692445 5.073265049100097 163 119 89
-8.307089044469162 1.863189609273086 9.766874763608152 233 249 249
-8.063279344456955 1.258392245991836 6.907477352261718 205 212 213
-6.445825888531966 -2.326268462912431 5.469165060162719 15 21 20
-8.154854490178391 1.500525863392959 12.635182592511352 180 182 174
-8.168369247334763 1.540780933125625 13.338962766766723 101 97 87
-7.524742319005294 0.378061206563125 6.023145649075683 210 217 215
-8.130649520772263 2.074154765828261 7.403435978532012 109 126 112
-7.942401601689620 1.846230418904433 7.263844880700286 106 115 107
-7.261800243275924 0.305259855015883 5.914546463132079 83 89 83
-8.056909992116257 2.034101875050673 7.352920684457000 106 115 107
-4.578558011668487 -6.316229192988267 5.084311220288451 161 112 83
-7.861515952962203 2.060754211171279 7.783133405685599 186 198 187
-7.755909158604903 2.024920852406630 8.853120419621641 202 213 208
-7.703427268880172 1.890082271321425 11.553659650921995 190 196 193
-7.684805347340865 2.128759296162734 8.419275614857847 220 232 227
-7.539354993718429 2.028859050496230 8.981603476643736 207 218 213
-7.054024888890548 0.756375224812636 6.183355781674559 3 4 4
-5.583658470528884 -2.657699255720964 5.405471536755736 19 25 29
-7.265396787541671 2.122649581654677 9.645925376057798 209 219 214
-6.896678521054549 1.501679332478652 6.227783534169371 4 2 1
-5.626569880860610 -1.988808958308091 5.732272121548827 27 40 42
-5.152722700255675 -3.059266565815797 5.172929021954711 165 130 105
-2.917528106587691 -9.065886585490098 4.778967592358764 23 27 20
-6.924074961560531 2.159350784047255 9.111972663045103 210 221 216
-2.928330852406783 -8.833869068400254 4.809112045407471 14 17 13
-6.952170922177596 2.183715255482802 9.009609911084349 212 222 217
-6.368939353841109 0.630781085713515 7.288759741425689 52 57 56
-6.827815844434066 2.161838920338759 10.057936880231077 210 219 214
-5.359430714267059 -2.060447661654344 5.612097475171264 40 55 61
-6.730151130574508 2.039615543110976 13.079554769635376 186 185 180
-2.655407621281905 -9.249564258829942 4.820874426007446 8 14 11
-2.668014242070480 -9.284851162211289 4.761505338788208 11 16 14
-6.698774768727584 2.021185786946425 13.154449197888550 183 180 176
-2.715077592747970 -9.198458282725205 4.662842008710083 7 13 10
-6.425060822385116 1.750066192372451 8.219105634331877 214 221 218
-2.714581205266280 -8.970872490183702 4.785092565655884 1 3 2
-5.889590098279281 0.736084850056777 5.954623195767577 111 115 111
-5.886343433278365 0.769051463826308 5.889178011059935 81 83 80
-4.882888889628215 -1.960522620455613 5.515345308423217 14 19 18
-5.672638728040023 0.391086967213759 6.623981568455870 81 82 75
-4.650888784545226 -2.681998340861192 5.242181512952025 156 114 90
-3.533428503888412 -5.609514324442735 3.231824609875853 1 5 3
-5.908723546880050 1.399677665455947 12.947652074933227 183 179 174
-3.395726038831039 -5.495181410090318 3.102145406842406 5 10 8
-5.691033138650222 1.892095000966201 8.495481524110014 207 208 200
-3.965900315659804 -2.890955446736207 4.525547716260131 164 130 108
-3.353682352917953 -5.450978367106309 4.506587478757079 28 28 22
-3.401036455052657 -5.376580803171983 2.770078394055541 22 28 26
-5.267339422124190 0.755924136860976 6.040042612195189 182 182 179
-3.419774963277145 -5.136153547541490 2.502021047711547 16 22 20
-5.237994446175857 0.885775478108535 6.420516106724913 150 150 144
-4.192092015164657 -2.560777990595689 5.411088916897948 100 101 96
-5.052715784626765 0.823509605153212 6.430933568120177 49 46 38
-4.116474582570357 -2.661429433600297 5.194436761975463 164 131 108
-5.273928477185531 1.502735049946914 8.151187974453146 154 168 173
-5.149899153726859 1.181673915608535 7.158703717827971 187 201 201
-5.329511507170959 1.749690921528945 11.915759060025389 183 190 185
-5.265677585023208 1.393192680104384 5.114104721188719 111 109 101
-4.953849687346941 0.839676292164931 6.679559442639525 204 186 171
-3.707137777226730 -2.410575477854600 1.360697481274779 13 19 17
-3.944774343388839 -1.890782325045457 4.224600288510497 15 18 16
-4.885296105163856 1.214949043019423 7.005306813359435 186 199 200
-3.852231575864120 -2.021534769312730 4.320613596081908 13 15 12
-4.765680818575187 1.500421436055312 3.507516595959838 8 7 5
-3.789455010312362 -2.120164601580492 2.169653627515014 24 37 41
-4.781934349554343 1.414045245869765 6.345371458172973 43 23 16
-4.571907265799804 0.874560268147597 4.864761802792723 121 112 105
-4.794374092238708 1.627283485158095 8.768652710557157 3 5 9
-4.638278140443130 1.369025142415175 7.436281535268004 186 198 200
-4.699093534367843 1.847189815266738 6.275725934148009 4 1 0
-4.621508582251830 1.570125015004287 4.546408865094358 93 78 68
-4.667565955537124 1.724036605580459 3.699846479535277 190 187 185
-4.644285692590041 1.377338798268447 7.579093101859267 189 200 206
-4.871516248899264 2.728277595265517 10.044794294476683 213 216 209
-4.465168012994094 1.381239326222548 3.062087747693236 4 3 1
-4.309354855435653 0.451909692509779 1.854377004742797 95 114 141
-4.503705843108459 1.515342147572646 5.598292562604124 9 5 3
-4.390036179440780 1.252578647359023 6.768735739827330 135 72 70
-4.485358490365310 1.797818572743545 10.547484848141844 199 198 194
-4.629404349940581 2.425324828847060 9.627515647053892 214 215 208
-4.386652006524367 1.587570102437148 7.654984000563796 194 205 211
-4.174771263020797 1.472820670827041 2.478733274579223 58 37 24
-4.429604126828475 2.397406013234267 9.560152265668089 211 212 203
-3.969052328484817 1.335652740224013 4.202196094632322 74 35 14
-4.204797520058913 1.250776679738173 13.631394121289429 173 167 160
-3.946645452397628 1.463262469990859 2.947369787335570 57 27 15
-3.942431046384139 1.370467097981582 3.902260038495238 75 38 16
-3.953055931943221 1.434042842610488 3.113600942731078 56 28 14
-3.032302333730025 -1.659647075907579 1.569052908063109 34 43 48
-4.115706278699203 1.419416339619765 8.171270880341703 58 57 57
-3.852895094769759 1.689364345296035 12.723221990704712 202 201 195
-3.972252442258163 1.569173724873671 11.279056999325926 146 97 55
-3.807622863667770 1.783209235890517 5.733241054654295 10 11 8
-3.136743499654098 -2.848159341589799 1.349189016461547 19 25 23
-3.790510131734176 1.152504832966933 6.568729850888427 155 105 64
-3.717126442807479 1.360095889790664 5.587455722928221 3 1 0
-3.709381415265365 1.319748790486464 4.697795841336424 105 77 52
-3.845477177518172 1.764042289479384 12.459654543042358 35 36 32
-3.689331724065108 1.543127925618300 7.792770046234305 158 94 48
-3.677092625516219 1.526957423909316 3.012440893292601 10 6 3
-3.608234002011581 1.437401683552871 9.788841101765806 177 131 83
-3.641020848172469 2.098299415333877 3.450480672955687 7 9 7
-3.615270211118026 1.526332767232070 2.222823831677611 162 130 109
-3.656018807309432 1.654130370839248 11.571053716778929 159 113 55
-3.695304943936629 1.684188754780898 7.572778824210341 158 92 46
-3.730045868771835 2.032342345936904 4.523993703961546 37 46 44
-3.496869756596847 1.358690173848281 1.977789137005980 75 78 89
-3.512386872189803 1.619569213612685 2.581723901868041 63 36 21
-3.556637479680343 1.612375648244033 7.441800686955626 162 99 55
-3.499916030782027 1.453833015187392 11.494382354855711 38 29 8
-2.794648124593063 -1.287259189860216 1.704342577099974 52 70 83
-3.454503251927657 1.992149265034804 4.971879932522947 41 51 50
-3.431139542477889 1.416615398152480 12.207934114575561 126 76 39
-3.404589011090560 1.550551803334365 10.231527063489134 49 52 48
-3.385186149495406 1.657143981679091 7.211007151246245 119 84 75
-2.937967969792648 0.186437280400404 1.802221510052855 61 86 111
-3.368117644208236 1.876467139943252 11.367978069424803 91 128 103
-3.047527744191451 1.126981647236953 1.957551691174682 45 66 89
-2.447906209843917 -0.966027109400621 1.622691843152221 51 67 80
-3.072692109959884 2.002886207326064 8.589132282376463 21 17 17
-2.819560958760543 1.147539050801406 7.005723986268218 125 66 35
-3.032118036168380 1.736993701680312 11.620746109128172 104 111 78
-3.069564058202071 2.113383205159316 10.184615823865110 57 57 53
-2.813146783726974 1.097902209981093 7.092345628380950 125 68 43
-2.815091802495284 1.286794097645888 12.395939085126098 193 196 196
-2.626732541936202 1.242034824116836 6.763075921178038 151 91 47
-2.463543607610030 0.464709909184584 1.790614339947875 60 80 103
-2.671721889394088 2.055799873097548 4.023751232266600 87 105 113
-2.767656280415816 2.140256316884170 3.323860857129271 37 56 59
-2.609885885136886 2.074313075764785 2.744712087750609 5 8 10
-2.575775815861983 2.140208156331191 3.164977762341674 51 76 80
-2.412870838063522 1.886369617207656 5.468456718564207 105 101 96
-2.389954521077438 2.182960422261367 3.754767152905639 25 26 25
-2.277018501179977 1.504548461659560 1.967871400952514 48 59 78
-1.851093723195357 -0.996867506281724 1.654762956738646 48 63 75
-2.254770709889693 2.163748176320205 8.414984378457243 162 165 163
-2.090288116353316 1.322280795796523 6.899444911122496 120 63 39
-1.869419290440841 0.549684674962172 1.831635686993773 69 90 117
-2.066245271580978 1.948680789693007 4.823580000043089 111 132 150
-1.905874921696944 0.453402431233534 1.854356500744994 75 94 120
-2.044927312749190 2.033463866932998 5.730499002576048 39 39 34
-1.686461402791305 0.758121879323134 1.797678682446654 49 70 92
-2.000379278081222 1.936474712117324 9.900143715977842 50 55 50
-1.481183959859176 -0.115194647089830 1.779066297650512 57 79 101
-1.827491475957198 1.651208789570937 6.048862430691893 133 75 31
-1.849819614308639 1.900419147236953 2.388029787182982 65 35 21
-1.781387998479171 1.785659225209365 3.935177538037474 89 48 24
-1.611666395085616 0.742935092671523 1.847645971417601 48 68 91
-1.469121171849532 -0.326657383219591 1.704709264874633 56 78 96
-1.751329376118941 1.797234447224746 2.203590128064330 122 91 72
-1.626334621327682 1.459593684895644 10.525906774640257 179 130 71
-1.673788024800582 1.798563869221816 8.634216103196318 192 144 90
-1.722732974904342 1.802673728688369 3.200428220868285 72 40 20
-1.632453395741744 1.547306926472793 3.542631361127074 72 35 14
-1.497629119771285 0.691477210744032 1.938228342175658 45 66 89
-1.602875425236983 1.630993278248916 9.143321964383299 193 143 89
-1.559735967534347 1.664122970326552 5.290955040097410 136 84 41
-1.599527789967818 1.847863109334121 7.723646614194091 83 26 8
-1.363656236546798 1.999216945393691 2.579113218426879 33 16 9
-1.372370197194381 2.005887420399795 5.581907961011106 45 50 47
-1.360035612004562 2.495327861531386 3.478156778454955 5 5 2
-1.404400064366622 1.576114089711318 10.408423158765013 175 127 71
-1.346185399907394 2.016333968861709 9.108428809285337 175 121 72
-1.277229263203902 1.788131625874648 9.768799993634397 169 128 85
-0.677875711339278 -2.096423356310716 1.530336115002807 29 38 34
-1.137381269353194 2.007969291432509 10.824925872922117 51 69 46
-1.084459735768600 1.890268237813125 5.441338512540037 37 33 31
-0.981039716618819 2.072673232777724 2.517374250531371 43 25 13
-1.016479684727950 1.850115211232314 12.231338712811645 120 76 37
-0.883556081670089 2.235865981801162 3.838684293866332 23 30 29
-0.879512979405685 2.462591560109267 7.873364772141154 78 94 85
