ply
format ascii 1.0
element vertex 505
property double x
property double y
property double z
property uchar red
property uchar green
property uchar blue
property float nx
property float ny
property float nz
end_header
5.730134603918438 2.705873876780448 11.991845199213383 140 148 146 -0.997435 -0.029038 0.065427
5.736861822546368 2.300865322321830 9.465714761362429 183 200 200 -0.748974 0.045931 0.661006
5.775652048529034 2.374259620875296 10.973434278116581 168 180 183 -0.980405 -0.139939 0.138650
5.756195661962872 2.121085792750296 10.723784753427861 103 113 115 -0.986342 -0.156775 -0.050503
5.734087107122784 1.981316238612113 8.652237841234561 184 202 205 -0.970250 -0.232232 -0.068433
5.726480600775128 2.027836233347831 8.740781375513430 186 203 207 -0.976030 -0.216912 0.017736
5.779967901647931 2.081026941508231 11.010050841913579 175 186 190 -0.986696 0.080117 -0.141463
5.811746237219220 2.492013126582084 8.154480942831393 188 207 207 -0.929207 0.311728 0.198493
2.845015642584210 -3.740704387456002 6.078315564737674 36 46 47 -0.238675 0.278214 0.930393
5.835763571203595 1.692634493082938 11.200348683939335 176 188 194 -0.914345 0.066606 0.399422
3.582677481115704 -2.647855371266427 6.861010560140964 8 17 21 -0.300494 -0.859115 -0.414277
3.534686205328351 -2.671407789021554 8.124779233084080 61 74 75 0.249955 -0.904727 -0.344952
5.834719774664288 1.531525284022269 11.927279540644047 170 179 181 -0.979104 -0.074257 -0.189318
5.992829439581280 1.853372484415946 10.704506703958867 123 135 133 -0.969520 -0.026684 -0.243553
4.001102087438946 -1.925547689229074 6.341542669878360 17 24 24 0.029400 -0.095314 0.995013
2.790141222418194 -4.385125011235299 5.530275889978764 20 27 28 -0.742607 0.080228 0.664904
3.630966303289776 -2.716976970463815 7.169742801533100 59 67 72 0.228000 -0.973661 0.001042
4.097360250891095 -1.795052021771493 6.363957950220462 17 24 24 -0.585389 -0.337790 0.737033
3.698919413030987 -2.586974710255685 8.066559919462559 28 39 41 0.082888 -0.828990 -0.553087
5.826550600469952 1.050352245539603 11.965042659387944 173 184 186 -0.999505 -0.031328 -0.002779
3.743306276739483 -2.662123531132760 6.902516790972110 10 16 22 0.279971 -0.939593 0.196929
3.817171213568097 -2.652305454045358 8.159746715174077 76 86 89 -0.108900 -0.623813 0.773950
5.851916429937726 0.742210119933066 11.383750030146000 169 181 193 -0.917650 -0.392814 -0.060125
5.884760019720440 0.694140762061057 11.381459781275151 169 180 193 -0.861904 -0.501201 -0.076940
4.817072031439190 -1.226927131444040 8.309618362532017 54 69 72 -0.830407 -0.468680 0.301269
4.811918375433331 -1.400920718937936 8.262292393789647 29 46 48 -0.868189 -0.109587 0.483982
4.114192125738507 -2.564778178959909 7.834205218897220 32 45 46 -0.679397 -0.398255 -0.616290
5.979900476873761 0.421147763699470 11.300619193659184 180 196 204 -0.973069 -0.186733 -0.135157
4.100842115820294 -2.643010467320504 7.842462458954212 30 44 44 -0.962150 -0.211599 -0.171734
5.970399973333722 0.321923315495429 10.822870561228154 186 196 205 -0.962116 0.216644 0.165526
5.925766584814435 -0.036787737190547 11.572888919458745 178 188 200 -0.754873 -0.421622 0.502396
5.952261087835675 -0.112140744954171 10.391835757837651 122 148 147 -0.998618 0.027390 0.044860
5.061872122228985 -1.543317168980661 8.415704616651890 200 215 215 -0.649961 0.181892 0.737880
5.929505941809063 -0.209176734119477 10.728431054697392 200 212 222 -0.877121 -0.262861 -0.401948
4.283074018896466 -2.971902936726632 8.539373287306187 204 213 211 -0.387432 0.332262 0.859941
4.618843195379620 -2.356221526890817 6.202345081911441 26 33 33 -0.623530 -0.219526 0.750346
6.021773931921368 -0.441907793313088 11.752741881952641 166 179 187 -0.020928 -0.979793 0.198918
4.457935926855450 -2.711923450261178 7.264060058937427 30 38 37 0.462017 -0.874792 0.145872
-9.834620359002704 4.011014372080741 11.578965732202885 201 173 153 0.147755 -0.956398 0.251934
-9.843741300164814 4.072988182276664 12.387512752161381 201 173 152 0.124543 -0.776218 0.618041
-9.754393460809345 4.140055328577933 12.877677508936284 203 174 157 0.551818 -0.803433 0.223590
-9.868644597589130 4.443248897761283 8.638678976641055 189 162 134 -0.034626 -0.989835 -0.137945
-9.133965852319355 3.911262661189018 12.479687759027836 199 172 155 -0.310685 -0.650388 0.693159
-9.420241715966815 4.068255096644339 12.462031432733891 200 176 159 0.003961 -0.998662 0.051568
-9.279021623193378 4.472114711970267 7.356631496296283 183 155 126 0.459321 -0.827406 0.323147
-9.114444139062519 4.294330269068656 10.833562919245120 195 167 143 0.644944 -0.613924 -0.455132
-9.142081143914814 4.544409900874076 8.797449299440737 188 159 132 -0.458389 -0.674345 0.578911
-8.150147321282978 2.648652464121756 7.169085451708194 186 182 174 -0.471805 -0.873035 0.123331
-6.537763478814716 -0.661287218361917 6.491943427667972 47 47 45 0.233676 -0.768539 0.595603
-7.738884332238788 2.461370140284476 6.762193628893253 175 176 171 -0.440352 -0.752118 -0.490315
-8.632913949548358 4.175558239191947 10.104687520609255 195 165 139 0.581899 -0.636452 -0.506282
-8.396519544183368 4.400670200556693 10.730930396662112 202 172 152 -0.014943 -0.927411 -0.373744
-8.239779832421894 4.260485321253714 11.196916648493167 204 175 158 -0.808948 -0.586665 -0.037777
-6.221542241632099 -0.483942180901590 6.536249705896732 48 51 47 -0.122203 -0.323777 0.938208
-6.392582776605243 -0.046372629731717 6.792544910059330 64 67 61 0.451479 -0.875898 -0.170202
-7.847416760980243 3.780948311060844 12.609201499567387 164 165 155 -0.574991 -0.817873 0.021653
-8.362452867089862 4.582216411799369 9.872840234384890 204 176 153 -0.745505 -0.660685 0.087854
-8.129835965692157 4.406222969263968 8.941451617823001 192 177 160 -0.864026 -0.479622 -0.153040
-6.364247205316181 1.181660562724051 6.816915282354709 91 89 76 0.133662 0.151487 0.979381
-7.878855111657733 4.204468876093802 8.957950541124697 226 231 222 -0.293086 -0.949826 -0.109232
-7.667658689080829 4.091215759486136 10.837564059839602 218 219 209 -0.004432 -0.975626 0.219397
-7.579319837152118 3.893877655238089 9.159984656916018 210 213 199 -0.767172 -0.641194 -0.017824
-7.465234162866230 3.785598427027640 8.452631005392428 193 192 180 -0.812091 -0.330400 0.480983
-5.582581164895648 -1.317788928776803 6.236628600702640 196 158 122 -0.137593 -0.281137 0.949753
-4.517459514199848 -3.752171367436471 6.209734984979984 197 158 124 0.077057 0.148753 0.985868
-4.346545102655048 -4.188711971074166 5.969755717859623 37 38 33 -0.007774 -0.901906 -0.431863
-7.607451322137470 4.354255348414359 8.743542381868716 213 216 203 -0.015622 -0.768073 0.640172
-7.468339326440448 4.120943695277152 10.688760587320681 220 227 217 0.346150 -0.885358 -0.310356
-5.581178071557636 -0.591103583603921 6.442108580217716 48 51 50 0.161613 -0.788816 0.593001
-7.138809087335224 4.112475544184623 10.973723479853030 173 175 166 -0.458121 -0.796179 0.395252
-4.470015647470111 -2.712709993153634 6.146834560976383 200 158 122 -0.072309 -0.170329 0.982731
-6.358297708093280 2.860715776652274 6.473099776850101 90 87 74 0.594865 -0.652067 0.470047
-4.931694390832538 -0.682470828324380 6.432217666254398 23 25 18 0.372968 -0.820231 -0.433723
-4.972736003457660 -0.649223953515115 6.475776263819095 42 43 42 0.015132 -0.617061 0.786770
-6.241091611444110 4.385732322901664 11.098680564508792 211 211 206 0.677195 -0.641762 -0.359930
-4.528050544320697 -0.841658979683938 6.332217046366092 187 147 112 0.351418 -0.481877 -0.802683
-5.250785234033222 3.044596344202933 8.294380077467318 177 183 177 -0.862265 -0.482613 0.153568
-4.304567458688373 -0.563881605893197 5.740153261766788 36 42 37 0.587874 -0.303136 -0.750009
-5.218088033258075 3.079982191294608 8.541675814733859 199 205 201 -0.840148 -0.477100 0.257928
-4.172106864511127 -1.165798872738900 6.058905431375858 47 47 42 0.610763 -0.015965 -0.791653
-4.232718112527484 -0.768600910931650 6.314446517572757 189 154 123 -0.267903 -0.524323 0.808278
-4.139908196984882 -0.816121429234567 5.908293434725162 75 76 69 0.368016 0.059396 -0.927921
-4.020941379129047 -1.050419539242807 5.326017209635135 58 60 56 0.034262 0.904774 -0.424512
-4.909929874002094 3.590334325999198 11.708039828882573 206 207 200 -0.037229 -0.430155 -0.901987
-4.588356616555805 2.876842647761283 7.616580494985935 53 45 32 0.545845 -0.807320 -0.224247
-4.372175099908466 2.843709856242117 3.245579310999271 44 56 64 -0.750340 -0.392529 0.531895
-4.656571271478290 4.424984604090628 6.277592608080265 28 21 14 -0.385321 -0.128698 -0.913764
-4.577937009393329 4.433454185694632 4.854432889566775 26 23 15 0.934076 -0.329661 0.137208
-4.249508740960712 2.954752355784354 6.992490538702365 10 1 0 -0.891167 -0.453404 -0.015697
-4.254258515893573 3.155125051707206 6.408531257257816 34 25 18 -0.962648 -0.222012 -0.154982
-3.735010268746967 3.099089294642386 5.728453823671695 147 117 83 0.992728 0.010828 0.119888
-3.538135173379535 3.518103986948905 5.802021810160038 99 120 126 0.236759 -0.963589 -0.124263
-3.382095458566303 3.231351047724662 10.452304908380864 108 135 124 0.444092 -0.710744 0.545551
-3.389371397554035 3.419489294260917 6.071884461984989 85 105 115 -0.077272 -0.928675 -0.362757
-3.190830948411579 2.865440517634329 3.332560130701419 111 89 64 0.024387 -0.381853 0.923901
-3.086909892617816 3.117244392603812 3.949871608362552 22 20 16 -0.112518 0.300864 0.947006
-2.921121957360858 2.926985174387869 3.324268886194583 103 79 55 -0.029606 -0.610708 0.791302
-2.998587133943195 3.181439548701224 8.181856998548861 181 146 99 0.176253 -0.960070 0.217254
-3.076338770448322 3.629169851511893 10.567470141992924 101 190 172 0.336428 -0.706892 0.622190
-2.875679614602680 3.021247059077200 3.619612285242435 101 71 41 -0.188772 -0.965865 -0.177398
-2.892356278955097 3.894202619761405 10.833331414804812 66 76 68 0.135500 -0.743916 0.654393
-2.676559867917652 3.199604898661552 11.797642299280522 127 143 129 -0.187175 -0.975140 -0.118603
-2.519197287618274 2.996158271998343 3.604349919901249 60 30 15 0.047107 -0.979358 -0.196567
-2.499731781541461 3.490416675776419 5.062110015497562 148 165 168 -0.420330 -0.829942 0.366767
-2.199996742068882 3.441613823145804 4.232710668192264 115 133 140 0.141453 -0.983719 -0.110853
-2.078595461904163 2.836692959040580 12.522215434656498 186 166 140 -0.084923 -0.950052 0.300316
-2.054066988288517 2.984693199366507 10.224632093057988 112 122 121 -0.586717 -0.807378 0.062486
-2.011230292379016 2.627186447352347 3.164484569177982 42 52 64 0.072820 -0.080793 0.994067
-1.781201163887138 2.805773168772635 6.734926768885013 140 96 49 0.400882 -0.915323 -0.038433
-1.708307246326561 2.849822670191703 6.887053438768741 142 98 52 0.328394 -0.909273 -0.255694
-1.560237633644695 3.141959577769217 3.713399478540775 71 42 23 0.258736 -0.862635 0.434645
-1.590393948017711 2.663809448450980 7.632570141301509 49 13 0 0.723108 -0.665834 -0.183793
-0.956326367913837 3.870914846629080 3.788530179605838 10 16 16 -0.044650 0.230194 0.972120
-0.937665107308979 2.964149147242484 12.330192634210942 152 123 94 -0.073763 -0.872159 0.483629
-0.894934954702014 2.920532375544486 12.409558364496586 160 130 97 -0.431674 -0.650645 -0.624755
-0.940918924867267 3.235812813013968 10.707747050867436 123 127 121 0.140862 -0.837552 0.527887
-0.877814116536731 3.344701200694022 8.074747422085162 138 102 75 -0.105979 -0.977900 -0.180220
-0.588303568421955 3.369355827540335 9.329042264566775 39 31 32 0.069821 -0.569948 -0.818709
-0.520034315644855 3.792833954066214 4.338782378778811 17 28 35 -0.253065 -0.807212 0.533261
-0.336034300386066 3.027420908183035 3.622840234384891 150 119 102 -0.006475 -0.932226 0.361818
-0.178910138665790 3.163838297099051 3.838301488504764 94 63 34 0.016526 -0.888137 0.459281
0.079710004270916 3.283742576807914 8.113658615694400 24 0 0 0.107970 -0.955399 -0.274874
0.059255597532635 3.377368837565360 5.862637945757267 26 29 28 -0.999530 -0.001175 0.030644
0.029093501509076 2.992070585459647 3.593432494745609 85 55 40 0.075894 -0.842763 0.532907
0.200694677770977 2.870437532633719 7.540118594960329 149 107 60 0.181029 -0.983262 -0.020590
0.303781149328595 3.105028301447807 11.647075721369145 168 150 126 -0.295610 -0.795757 -0.528569
0.399840233267193 2.783994585246024 10.990545102701542 169 140 97 -0.140180 -0.986841 0.080592
0.738989469946270 2.627706915110526 12.015497752771733 174 147 103 -0.094090 -0.950153 -0.297249
0.853141424597149 2.941970497340140 5.442884751901981 102 69 37 0.445583 -0.883385 -0.145214
0.909564611853009 2.977330833643851 5.537179538355228 104 74 42 0.737372 -0.668487 -0.096992
1.228685018957501 3.328856378764090 8.045774051294680 127 93 66 0.132035 -0.981275 -0.140237
1.232894775808697 3.139259487360892 5.477059909448978 163 177 182 0.274650 -0.932049 -0.236331
1.296435711325055 2.680619627207694 7.843563714371082 134 100 79 -0.168089 -0.771218 0.613978
1.545894262731915 3.448229461878714 4.746332713709232 67 69 65 -0.080852 -0.538908 -0.838475
0.781877634466534 -0.026998072892251 6.007189342127201 71 81 84 0.653773 -0.512242 -0.556946
1.607884523809796 3.389691978663382 5.926689931497928 157 170 170 -0.695967 -0.716277 0.050764
1.312529680670147 1.033396154612479 6.179247924433109 57 65 67 -0.391634 0.349123 0.851314
1.544535992086773 3.251927286356864 6.197317787752506 11 12 13 -0.079980 -0.345358 -0.935057
1.924546120108014 3.133054167002616 8.469338068113681 151 115 75 -0.300856 -0.694095 0.654001
1.982833025396710 3.361913830012259 6.184381076441166 11 13 11 -0.062807 -0.560253 -0.825937
1.994192717016583 3.217425018519339 5.940649577722904 189 200 198 0.099869 -0.954178 -0.282082
1.017332432211285 -1.015465825825753 6.281055876360294 59 62 63 -0.812812 -0.116935 0.570668
2.252528545797711 3.164062172144828 9.871336051569340 164 163 170 -0.635050 -0.751227 -0.179915
2.237097141683941 3.041538625925956 6.702199050531742 100 122 138 0.011003 -0.963457 -0.267636
2.185791370809918 2.647781044215141 12.472273418054936 21 0 0 -0.088257 -0.943648 0.318966
2.342116472662335 2.862664848536429 7.372112342462894 96 78 63 -0.136141 -0.445008 -0.885118
2.378503439367657 3.204259782999930 8.607523867235537 157 149 134 -0.871137 -0.180630 0.456611
2.370586512030011 3.132237583369193 6.949857243643161 177 194 210 -0.012624 -0.962071 0.272508
2.306801912725811 3.064653545588431 9.967824765787480 96 102 103 -0.747033 -0.662077 -0.059959
2.503994581640606 3.046843916148124 7.165553965912220 140 166 188 0.194587 -0.942215 -0.272703
1.225273964346295 -1.656201690465036 6.310554215059635 128 131 121 -0.558087 -0.116210 0.821605
2.502534983099347 3.010343223780570 8.694016048059817 153 119 75 -0.513961 -0.809085 -0.285001
2.513650057257061 2.883559614390311 10.117452451334355 163 133 89 -0.634292 -0.766164 -0.103280
2.616665956915265 2.936869531840262 9.398345777140017 164 135 90 -0.124100 -0.958415 -0.256984
0.899541733206158 -3.154491990834298 6.112560221300479 57 68 68 -0.118660 -0.739176 0.662977
2.622634050787335 3.375528484553275 4.131586858377811 49 61 66 -0.939145 -0.005144 0.343482
2.805949804724102 2.745305448740897 10.792465039835331 146 114 81 0.213563 -0.964264 0.156800
2.908887026251202 3.038546711176810 8.686393448458071 136 103 64 0.125984 -0.992023 0.004297
2.837100145758038 2.643752723902641 11.240573712931035 138 109 77 0.030677 -0.957084 -0.288184
3.243851778448468 3.243173986643729 7.317491540060398 35 38 36 0.555417 -0.245766 -0.794425
3.339068529547101 3.354226022929129 5.969020911798832 24 33 32 0.758314 -0.597867 -0.259837
3.419270155371075 2.660352855891166 7.658581161246654 112 77 40 -0.254697 -0.952614 -0.166303
3.474980471075421 2.603046566218314 7.597109529496190 125 86 42 -0.223331 -0.967815 0.116005
3.790424463690167 3.485031992167411 6.013019987688419 15 24 23 -0.058071 -0.994686 0.085015
3.752420542181378 3.423495918482718 6.183216044054386 14 18 17 0.101737 -0.593902 -0.798079
2.356189844549542 -0.832491964131418 6.401150414095279 48 50 48 0.030445 -0.020941 0.999317
2.269181845129376 -1.144833296567025 6.437697359667179 56 56 42 -0.014129 0.011369 0.999836
3.724345323980694 2.798055559367118 6.459788390741703 34 39 35 -0.320512 -0.285587 0.903168
3.960636732519513 3.320465236872611 7.251097628221866 18 23 23 -0.811652 -0.065215 -0.580489
1.639637587011700 -3.176812022954049 6.074342080698368 50 60 59 0.509683 -0.851410 0.123792
3.930667040289288 3.255711942881522 6.755042442427036 19 27 28 -0.993280 -0.086507 0.076880
4.016089556158429 3.220553547114310 5.938156077013370 73 88 87 -0.990494 0.042068 -0.130965
1.666481373251324 -3.076944917470041 5.958417722330448 10 15 16 0.209683 -0.667561 -0.714419
4.162552473486310 3.131500869959769 8.798423000917788 44 59 66 -0.438365 -0.800114 0.409455
4.087035295904522 2.932774454325614 8.252851494894381 131 97 63 -0.088831 -0.666745 0.739973
3.987542269171124 2.538303047388969 12.687235423670170 80 74 60 -0.862847 -0.377280 -0.336385
4.291921732366925 3.148618131846366 8.516551324472781 125 105 85 -0.832054 -0.522195 0.187079
4.309104559362774 2.985873132914481 9.333491632089968 56 60 59 -0.229543 -0.854027 -0.466849
4.317101595342999 2.817475229472098 7.034443506346103 154 171 173 -0.073505 -0.979159 0.189326
4.022456762731915 2.329932600230155 12.348667689905522 114 92 67 -0.055474 -0.843240 -0.534667
4.387574789465313 2.925812154978690 10.799228021250126 42 48 49 -0.714077 -0.652245 0.254306
4.323631403387433 2.845783859461722 6.768107959375736 109 129 135 0.606023 -0.695295 -0.386394
2.221346495092755 -2.522185176640573 6.655958959207889 129 139 139 -0.011250 -0.995239 0.096808
2.171308157385235 -2.638215869694772 7.287316778049823 43 50 55 -0.237826 -0.969149 0.064719
2.188931581915265 -2.692342370778146 7.559450340763685 138 145 147 -0.221218 -0.974486 -0.037934
2.302259085119610 -2.798912137776437 8.105414101229069 34 46 47 -0.428372 -0.350922 -0.832677
2.541915533483868 -2.494803756505075 6.234617182360050 11 15 16 0.094969 -0.417160 0.903858
4.756114122808819 2.587184339732108 11.394813129053471 128 104 76 0.486118 -0.873833 -0.010244
2.371214506567364 -2.878055661946359 6.131343552217838 64 78 81 0.074702 -0.060824 0.995349
5.206729528845196 3.389678865641532 8.091872045145388 148 149 143 0.502110 -0.660918 0.557739
5.243980047644024 3.378260046214042 8.083987781153079 158 164 159 0.208955 -0.529829 0.821961
4.850742456854229 2.621524006098685 11.101032325373051 122 99 72 0.479598 -0.814355 -0.326820
4.812641260565167 2.483840852946220 12.246446677790043 119 99 73 0.090926 -0.995479 -0.027464
4.979795095861798 2.771757036417899 10.508489200220463 118 101 79 0.621871 -0.782721 0.024976
5.325177309454327 3.348279625147757 8.824808427439089 167 173 171 0.012737 -0.981743 0.189788
5.623980638922101 3.449230104655204 8.660305210695620 124 134 115 -0.818899 -0.498091 -0.285150
5.466008779943829 3.382531076640067 9.051314183817263 168 175 172 0.355031 -0.934735 -0.014925
5.626179811895733 3.408936649531303 11.842845508203862 77 80 71 -0.993709 0.108190 -0.028926
5.642823812902813 3.371786504954276 11.358122178659794 83 85 80 -0.973347 -0.078364 -0.215532
5.689071295202618 3.083481460780082 8.155227014170046 173 187 183 -0.896359 -0.322556 -0.304134
5.784272310675030 2.963701873988089 8.267751762018557 183 201 203 -0.719279 -0.693917 -0.033420
3.012325880468731 -2.644373983174386 8.129026242838261 161 176 176 0.382373 -0.501634 -0.775986
5.755850908697491 2.235676437586722 10.742321082697270 127 138 139 -0.989320 0.007106 -0.145588
3.312375662268048 -2.607990592747750 6.813209482775089 45 52 52 0.196721 -0.859312 -0.472105
5.901353952825909 1.428868681162772 9.771290847406743 187 203 203 -0.991731 0.119238 0.047445
5.827554342687970 1.185227066248832 11.009049245462773 188 193 194 -0.982504 0.145628 0.116101
5.941923735082989 0.602175325125632 11.346241065607426 180 192 203 -0.853994 -0.469440 -0.224321
3.639234659613019 -3.110782712727609 6.044121810541507 25 36 36 0.249623 -0.272435 0.929229
3.759850141943341 -3.104134649067941 6.020003267870304 40 52 53 -0.008506 -0.235073 0.971941
5.901648161352520 -0.146453902154984 10.737135955438969 190 203 211 0.353822 -0.796345 -0.490556
4.914907095373517 -1.647304862767282 8.298290678606389 119 132 133 -0.662447 -0.021749 0.748793
5.948109266699200 -0.050317183166566 11.290189811334965 194 198 208 -0.982114 0.153756 -0.108681
-9.793625714837665 4.332166820734916 9.153389045343753 191 163 139 0.649220 -0.650721 -0.393797
-8.331308724938983 2.810940414637503 7.151758560285923 175 155 135 -0.202257 -0.712287 0.672115
-9.034480454980487 4.392236381739554 10.565493175135012 192 161 137 0.099553 -0.873733 0.476110
-9.155631425439472 4.514113575190482 7.711673000202533 185 157 128 0.326113 -0.736446 -0.592704
-9.058242681085224 4.242929130762992 10.123906203852053 191 162 137 0.351976 -0.935165 0.039739
-8.328895928918476 2.810664087504325 6.408615776644107 169 140 113 -0.702218 -0.702849 -0.113546
-8.841887357293720 4.154351383418021 11.789212295160649 197 169 147 0.014105 -0.961010 -0.276153
-6.584873082696552 -0.768003910809579 6.490899511919376 47 48 44 0.370933 -0.808464 -0.456941
-9.066520097314472 4.555710941523490 7.700167731688377 183 154 124 0.728882 -0.663578 0.168508
-8.472962262689228 4.432477623194632 12.231624671564457 202 172 155 0.630481 -0.768718 0.107550
-7.518381478845233 2.475035339564261 6.844037124262210 82 82 73 0.835949 -0.500903 0.224245
-8.165485265313739 4.217487007349906 10.093733617411013 204 175 155 -0.647466 -0.745620 -0.157602
-7.404210927545185 2.387031704157767 6.933739611254093 68 68 57 0.103801 -0.535012 -0.838443
-6.345106961785907 -0.101954922109666 6.875504442797062 61 62 55 -0.205708 -0.593537 0.778073
-7.840826394616718 3.870696932047782 11.610513755426762 172 171 160 -0.372546 -0.927418 -0.033238
-6.480923535882587 0.204467773407874 6.845084079847690 84 82 73 -0.219631 0.011604 0.975514
-7.062198998986835 2.466284424036917 7.337915101395008 183 184 178 -0.574436 -0.794312 -0.197718
-7.621192338525409 3.959453016489920 9.703992196665164 215 217 204 -0.403233 -0.914438 -0.034725
-7.503298165856952 3.738939672678886 11.738508292780278 208 206 195 0.396227 -0.524639 -0.753497
-7.393617036401386 3.937081962794242 11.817877360926030 212 212 206 0.549066 -0.077008 -0.832224
-7.032305123864765 3.744297176569876 10.083220788584109 221 229 218 -0.432811 -0.899759 0.055750
-6.646102788507099 2.499754577845511 8.642888733492251 178 178 170 -0.267534 -0.849145 0.455389
-6.633581998407001 2.690417200297293 6.814818867788669 84 81 70 0.946515 -0.305109 -0.104963
-6.018335702478046 1.022952705592093 6.821356841669437 91 89 75 0.408711 0.269001 0.872121
-6.483211877404804 2.370221048563895 8.249211856470462 197 196 190 0.135513 -0.949203 -0.283990
-7.011172654687519 3.995109468668876 11.067731925592776 210 211 205 -0.366050 -0.916805 -0.159609
-7.080245854913349 4.025184780329642 10.677573510752078 222 229 218 -0.195400 -0.889623 -0.412783
-7.073954942285175 4.029204517573294 10.920594998941775 232 235 225 -0.100009 -0.916546 0.387223
-7.119659783898944 3.866723448008475 10.758902141199465 222 229 217 -0.068920 -0.713154 -0.697611
-7.037722947656269 4.027962833613334 10.969811269388552 165 167 159 -0.351840 -0.906598 0.232998
-4.504895093499774 -2.988517373829904 6.141017982111332 202 159 122 0.085912 -0.037245 0.995606
-6.915806176721210 4.041359573573050 10.951533385858889 166 169 159 0.412085 -0.910495 0.034430
-6.140659215509052 2.347381979197440 8.745112964258547 143 141 130 0.378047 -0.826286 0.417531
-6.188878419458026 2.945155054301200 6.538899966822025 89 87 71 0.119115 -0.756060 -0.643572
-6.115061166345233 2.977285295695243 6.345440575228092 51 47 34 0.378713 -0.771367 0.511439
-5.035927178918476 -0.370661675959649 6.520483323679325 46 50 46 0.035647 -0.202720 0.978588
-6.024056794702167 2.978976637095389 6.326645084963199 212 208 192 -0.109758 -0.885499 0.451491
-5.822996976434345 2.775897413462577 7.187660076961872 189 186 175 -0.047571 -0.953931 -0.296230
-4.673644187509174 -0.582314521103921 6.335913726435062 185 145 111 0.252654 -0.954324 0.159473
-5.639882686196918 2.153607040614066 6.210478970156070 142 134 117 0.151918 0.185740 0.970784
-5.651067140161151 3.645788818568167 8.476197251425143 112 112 101 0.988305 0.134505 -0.071839
-5.153395774423236 3.011848598689017 8.221217164144869 218 222 221 -0.437609 -0.899138 0.006998
-5.154567840158100 3.323435693949637 8.930759736643191 220 228 222 -0.753573 -0.414677 0.510069
-4.788188579141254 2.694780498713431 6.817240366087314 77 73 64 0.152515 -0.730072 -0.666134
-5.125582578240985 4.639667183131156 11.613001891718266 206 201 195 -0.078209 -0.426467 -0.901115
-4.820202233850116 3.178064256876883 6.217532226190921 139 129 110 -0.233425 -0.833681 -0.500489
-4.559401872216815 3.110671430796561 7.436760762081501 52 44 37 0.804721 -0.351537 -0.478378
-4.500622155725116 3.024495989054618 6.950694867716190 25 25 20 0.850507 -0.144917 0.505606
-4.626674535333271 3.371518999308524 4.185829707727787 51 54 49 0.992095 -0.031602 -0.121445
-4.527916791497821 3.530244022578178 12.042159148798344 204 205 195 0.393716 -0.907700 0.145148
-4.695109489022846 4.079367309779105 5.973840304956791 64 53 35 0.969493 0.243439 0.028650
-4.662773969232196 4.107122093409476 5.649999806032535 64 53 35 0.960544 0.221127 0.168697
-4.656998994409198 4.397157341212210 5.163399764643069 29 23 17 0.979956 0.095245 0.174971
-4.558761718331928 3.314373403757987 5.140382596598026 199 195 190 0.750171 0.341683 -0.566125
-4.425228478967304 4.614304691523490 4.425584622965212 58 50 35 -0.865298 -0.446643 -0.227527
-4.195340516625995 2.955605655878959 4.016322681055423 16 12 7 -0.914120 -0.405437 0.002561
-4.433521153985614 3.595886141032157 12.204321929560063 201 200 192 0.323412 -0.318556 0.891026
-4.196717145501728 2.964384227961478 3.440854617700931 89 75 66 -0.331078 -0.458519 0.824711
-4.145412566720600 2.892456680506644 3.355078288660404 142 129 118 0.068489 -0.658194 0.749726
-4.000548722802753 2.960992485255180 11.812714168177006 200 198 190 -0.679527 -0.617785 -0.395709
-4.080380799829120 3.122825056284843 11.769303866968510 204 201 191 -0.846548 -0.138432 -0.513997
-4.133061292230243 3.423828512400565 11.734872886286137 201 200 190 -0.916031 -0.382465 0.120862
-3.977969529687519 3.092895418375907 9.058247157678958 71 68 60 0.339879 -0.910222 0.236597
-4.084633233605976 3.278630167216239 11.570502349481938 202 201 191 -0.928001 -0.369235 -0.049804
-3.917831780969257 2.929034382075247 3.824652740106937 84 52 30 0.506911 -0.857018 -0.092524
-3.798640611230487 2.790427833765921 7.130948284016010 160 121 77 0.878586 -0.034369 0.476345
-4.239758136331195 3.290190130442557 6.210609742746708 90 76 64 -0.976062 -0.126319 -0.177049
-3.838554503976459 2.859750181406913 7.308378943548557 152 110 63 0.390840 -0.920218 -0.021046
-3.763387324868793 3.273880153864798 4.066010781870243 93 63 39 0.680734 -0.142224 0.718591
-3.780320050775165 3.324041992396292 6.773047217474338 133 115 87 0.987794 -0.145404 -0.055861
-3.793067815362567 3.100849539011893 4.875145742044803 109 72 36 -0.572030 -0.797232 -0.192882
-3.658500793038959 3.140520483225760 8.087548205004092 145 113 86 -0.177644 -0.979591 -0.094044
-3.678517105638141 3.158907324046073 10.800011941538212 176 142 104 0.046861 0.590184 0.805908
-3.697128536759967 3.434966236323294 4.119477101908084 49 52 46 0.622013 -0.745335 -0.239952
-4.250525834619159 4.242522865504203 11.034386703119631 209 208 200 -0.734187 -0.581980 0.349669
-3.544350507318134 2.663555294245657 3.166871139154789 38 49 61 -0.148902 -0.318892 0.936021
-3.461566093026752 3.191603571146903 11.875498839960454 178 176 156 0.540244 -0.841487 -0.006067
-3.280055286943073 2.680686145991263 7.839304366455432 136 101 77 -0.248856 -0.963628 -0.097422
-3.377894284783954 3.551099449366507 5.310652085886356 114 136 141 -0.162358 -0.927843 0.335779
-3.262681009828205 3.290135055750785 10.386569806681035 78 139 136 0.339620 -0.781090 0.523981
-3.208150150834674 3.041968494624076 9.594471999750493 145 147 137 -0.242249 -0.951708 0.188592
-3.085375788270587 2.657171636790213 7.748538115368244 171 134 79 -0.048321 -0.959876 -0.276232
-3.059964063226337 2.846738964289603 10.055260011301396 193 188 192 -0.055545 -0.611548 0.789255
-3.069075706063861 3.400263458460746 4.985736438379642 151 162 160 0.060935 -0.931981 0.357349
-2.974428060113544 3.140047937601981 8.516314634428378 188 157 104 0.083513 -0.953430 0.289821
-3.017895462571735 3.020930439204154 12.486542293177006 182 164 137 -0.445395 -0.735500 -0.510552
-2.778649094163532 2.981937557429251 3.758536407099125 106 75 42 -0.111056 -0.942013 0.316666
-2.771901967584247 3.263619571894584 8.905449458704348 60 60 93 -0.731429 -0.680931 -0.036684
-2.730236473142261 3.594020515650687 10.952476569757817 78 84 82 -0.711283 -0.688765 -0.140286
-2.225782575666065 3.345008999079642 6.779679783926365 121 131 121 0.653167 -0.713162 -0.254506
-2.174363317548389 3.085394531458792 10.324837991342900 58 72 75 -0.410778 -0.911709 -0.006885
-2.029003443776721 3.164610296458182 8.314464220152255 168 129 71 -0.084579 -0.896336 -0.435233
-1.899280997573490 2.952939897746024 8.953318783388491 182 159 130 -0.476975 -0.838587 0.263186
-1.947841154991741 3.278752475947318 6.963168093309757 73 75 63 -0.884561 -0.465642 -0.026995
-1.778174950390214 2.752613931864676 9.829172441110966 171 137 82 -0.222380 -0.974919 -0.008972
-1.775187787248845 3.056238561839042 8.304596432791110 177 140 88 -0.635637 -0.577652 -0.512136
-1.610019447862262 2.979622036189017 8.426537164793368 97 50 27 0.672586 -0.735035 -0.085742
-1.636866929589862 2.954284578532157 6.305795499430057 143 106 63 0.481013 -0.584414 -0.653519
-1.645460503756160 2.976646810740409 6.032860228166935 136 99 57 0.683820 -0.715906 0.140957
-1.590742650090808 3.151217132777152 5.799402066812870 61 45 24 0.838319 -0.512223 -0.186680
-1.554341050445194 3.371586471766410 6.624458083258030 107 99 77 0.723094 -0.548150 0.420318
-1.577100577413196 3.008192688197074 9.819768735514042 207 170 130 0.929700 -0.186167 -0.317805
-1.375859620629901 3.129610687464652 9.894353934870121 173 140 95 0.310412 -0.791018 -0.527195
-1.456926437675113 3.162844091624198 7.365857013807651 23 23 18 0.192722 -0.299949 -0.934285
-1.448202910482044 2.812260061472831 12.500210830316899 190 172 148 -0.056641 -0.786897 0.614479
-1.328863742410297 3.070474535197196 7.879812845335361 195 163 133 0.117768 -0.204162 0.971827
-1.349463167249317 2.425207525462089 11.923082896814702 186 167 138 0.023033 -0.707595 0.706242
-1.370801808892841 2.825436025828299 10.727410861597416 181 152 102 0.738427 -0.672880 0.044243
-1.024449589311237 3.413335472315726 10.940311738596318 64 65 58 0.812582 -0.558220 0.167633
-1.056937696992511 3.181843668192801 9.163239547357913 182 195 196 0.360543 -0.925760 -0.113921
-0.790620031415576 3.452830463618216 3.860810824976322 104 97 77 0.052888 0.157626 0.986082
-0.727512719689960 2.872543960780081 3.272133418665287 80 71 62 -0.074569 -0.907349 0.413712
-0.639919641076679 3.154255062312064 3.829973765955326 93 59 29 -0.494628 -0.805847 0.325505
-0.649588468133564 3.214274078577933 10.058316060648320 110 132 131 -0.078723 -0.989683 -0.119710
-0.708912851869220 3.210446268290458 8.398229726896639 170 132 77 0.241167 -0.855697 -0.457844
-0.501569392739887 3.825535684794363 3.884405442819949 69 85 81 -0.046728 -0.931946 -0.359573
-0.492427232324237 3.224289089411673 9.436917969332095 55 55 51 0.139835 -0.193756 -0.971033
-0.508396747171039 3.422867685526786 7.965139040098545 126 92 62 -0.247473 -0.684201 0.686022
-0.302585365831012 3.083794981211601 11.423382588968632 180 184 178 0.105557 -0.977950 -0.180197
-0.232959392129535 2.334273725718436 3.208269664392826 40 52 64 0.268160 -0.396736 0.877890
-0.093047621308918 2.925547987193045 3.418018409357425 75 49 23 0.125624 -0.903261 0.410290
0.093810913504010 2.954208999842582 10.941807576761601 65 68 60 -0.989603 0.134632 0.050604
0.079092619360333 3.308555990427909 9.959809371576664 90 109 122 -0.600147 -0.758314 0.254524
0.099247810781842 3.531123310297903 3.926082202539798 147 146 129 -0.552568 0.209215 0.806782
0.069977281034832 3.588541895121512 6.459701606378910 51 51 47 -0.930335 -0.202099 0.305995
0.108121035040265 3.172268301218924 10.630330154047368 90 101 109 -0.498895 -0.656820 -0.565413
0.105990168989544 2.951529413432059 6.182133027658817 10 2 0 -0.073220 -0.996428 -0.042083
0.095246789396649 2.655861526698051 12.357544490442631 151 120 85 -0.295844 -0.854656 0.426660
0.165538427770977 3.243876844614920 8.208625384912844 151 107 65 0.148656 -0.918521 -0.366360
0.183889982641583 3.023015648096976 5.536730119333622 110 83 54 -0.968125 -0.003239 0.250446
0.279457209051495 3.248367220133719 3.684104272470829 86 54 32 0.416386 -0.817219 0.398467
0.354464409292584 2.974562078684745 6.104838797197696 124 80 40 -0.190168 -0.980559 0.048376
0.323737261236554 2.804645448893485 10.662786313639042 175 147 101 -0.298381 -0.953824 0.034476
0.437018034399395 3.130652815073905 4.109470435724613 77 44 29 -0.224499 -0.948306 -0.224311
0.350414154470807 2.898309618205009 12.612962314234135 146 118 90 -0.588296 -0.802794 0.097114
0.332684872091656 2.935639530390677 9.789666244135258 170 139 94 -0.260077 -0.791952 -0.552423
0.506130812109356 3.187537103861747 8.086561152086611 104 69 42 -0.200854 -0.978387 0.049168
0.453005669058209 3.002903372019706 6.196465322122928 144 103 71 -0.391106 -0.914980 0.099236
0.472184297979718 2.972581297129569 6.202841350183841 42 4 0 -0.706693 -0.618044 -0.344393
0.557568428457623 3.057568699091849 9.134714910135623 151 109 67 0.209224 -0.958160 -0.195330
0.578422901571637 2.737574964732108 12.041599341974614 158 128 88 0.426813 -0.832611 -0.352973
0.691684601248150 2.784414440363822 11.103004047022221 175 149 102 0.438281 -0.898572 -0.021844
0.778797266424542 3.071852594584402 3.919670650110599 77 47 24 -0.448020 -0.881509 0.149066
0.817566273153668 2.838012367457328 6.962851115808841 126 84 43 0.413598 -0.893324 0.175809
0.893104193151837 2.894440323084769 3.349121162042972 82 64 43 -0.216152 -0.434578 0.874311
1.181605932653790 3.451069265574393 10.840070315943120 46 48 41 0.986454 -0.144292 0.078026
1.152921078146344 3.148147970408377 7.183789559946415 98 115 124 0.107293 -0.979183 -0.172303
1.160903570593243 3.222197204798636 5.154869386301395 132 144 143 -0.031870 -0.998499 -0.044533
1.343150255621319 3.933666378230033 4.437823363886233 19 20 18 0.408337 -0.897400 -0.167137
1.043034670294171 3.018443256586966 6.407361456499454 66 48 27 0.755929 -0.356716 0.548931
1.301725504339581 3.242646127909598 5.817842313394901 142 157 162 -0.049457 -0.830843 0.554304
0.735282537878399 0.124811127752242 6.311061450586673 54 67 68 -0.704978 0.326646 0.629531
1.388001320303326 3.425026088923392 5.995891281710025 2 8 8 0.132700 -0.315747 0.939518
1.287457106054669 3.119659095972953 6.371453353510257 93 92 86 -0.083894 -0.928809 0.360937
1.374407408178692 3.200454860896048 9.078773089990969 46 46 57 0.055420 -0.908078 0.415119
1.383235809744244 3.153883129328666 9.008633324251528 189 196 194 -0.086489 -0.972438 0.216529
1.800857660711651 3.210611969202933 8.991179534540530 99 106 103 0.224927 -0.659708 0.717072
1.847350952566510 3.307606130808768 8.542927750692721 172 165 148 0.443455 -0.828863 -0.341077
1.740376827658062 2.831278473109184 12.558449336634038 170 142 119 0.550378 -0.629725 0.548206
1.864387390554791 3.326359420985160 8.519504555807467 122 102 76 0.094908 -0.983800 0.152086
1.844310877264386 3.271969944209037 5.909801313028690 159 171 173 -0.173341 -0.585785 -0.791713
1.883578178823834 2.891434341639457 12.342402049646733 153 121 84 -0.805577 -0.591856 0.027442
1.934797642172223 2.622274070948539 7.794121512518283 39 8 3 -0.063912 -0.939043 -0.337808
2.089146730841046 3.143863111704764 10.451721259699223 107 113 106 -0.050712 -0.995270 0.082867
2.139796612203961 3.100662618845877 6.491332599268314 184 199 212 -0.163127 -0.781979 0.601579
0.857627031744366 -2.369896024495187 4.826398679361698 38 46 53 0.997165 0.018589 0.072915
2.311476347387677 2.982255846232352 10.727983066187260 60 64 63 -0.817401 -0.488113 -0.305943
2.386389372290020 3.263609081477103 8.864994832620974 157 162 158 -0.921088 -0.263798 -0.286370
2.372031805456524 3.046193748682914 12.091649123773930 64 77 78 -0.720900 -0.092489 -0.686839
2.472272512853985 3.333735853403983 5.668922254190799 161 173 177 -0.792657 -0.605794 -0.068612
2.286216375769024 2.636196523875175 12.424096175775883 137 112 85 -0.243482 -0.773124 0.585658
0.835512039602643 -2.772971957951608 6.058933683977481 60 67 71 -0.598586 0.277938 0.751296
2.392981169165020 2.743827015131889 12.024993487940190 72 81 80 -0.909254 -0.108145 -0.401949
2.530660269201642 3.175688654154715 6.188936659441349 12 15 12 -0.413449 -0.349041 -0.840970
2.545555708349591 3.320229679316459 6.021861383066532 16 14 10 -0.232665 0.154882 0.960145
1.589017746389752 -0.396841704875055 6.428152271852848 60 57 53 -0.142978 0.025606 0.989395
2.466965792120343 2.682094484538017 11.554665395365117 150 128 100 -0.845794 -0.477930 -0.237099
2.660907862127667 2.716697841853080 10.558835574732182 166 138 97 -0.191162 -0.975443 -0.109400
2.690808889807110 3.029310852259574 6.089493581400272 27 23 17 -0.746177 -0.204674 -0.633505
2.640463468969708 2.795912891596732 10.131444999323246 162 133 92 -0.189167 -0.970436 -0.149901
1.522565004766827 -1.428244799405160 6.280700036630985 56 60 47 0.494800 -0.373905 0.784454
2.790176508367901 2.828494220942435 6.589728602514621 118 83 43 -0.565786 -0.686748 0.456359
2.889194605291729 2.445755392283378 12.017235824213383 143 116 82 0.331690 -0.919561 -0.210688
1.497834083975201 -2.016048997670236 6.251501747713443 52 57 47 -0.652991 -0.500249 0.568642
3.129528162420636 2.813278108805594 10.780407735453007 67 60 53 0.789374 -0.533280 -0.304141
3.391175863684063 3.425158172816214 5.789236137018558 116 131 133 0.417575 -0.870546 -0.260349
3.345731851995831 3.145487934321341 8.783617564783450 24 31 29 -0.524771 -0.844499 -0.106946
3.461804983557110 3.563602596491751 6.758006402597782 108 127 125 0.254498 -0.755881 0.603220
1.818688270986920 -1.625308245450082 6.343538352594730 61 65 63 -0.177338 0.130526 0.975456
3.559793112219220 3.510963112086234 5.771596976862308 27 44 47 0.311086 -0.950382 -0.000099
3.573248503149395 3.484553962916312 5.900502630815860 29 44 48 -0.309824 -0.818898 -0.483130
3.707212088049298 3.495048910349784 5.888048836336490 32 46 51 0.062855 -0.825559 -0.560805
3.565645334661847 2.952465921610770 6.610673853502628 72 83 83 0.284205 -0.912069 0.295564
3.371670839727765 2.368983179301200 12.631579467401860 100 91 76 0.187280 -0.439497 -0.878504
3.701452372015362 3.211690336436209 9.761467525110600 128 158 139 -0.300037 -0.952864 0.045030
3.765123960913067 2.948455721110282 8.397798844919558 137 102 68 -0.847368 -0.453605 0.276061
3.915497419775372 3.555650621622977 6.715402909860965 44 56 63 -0.776594 -0.559809 0.288992
3.893972036779767 3.468280464381156 6.676188000784275 25 36 38 -0.478076 -0.125582 0.869294
3.876119253576642 3.374744564265189 6.010026284799930 26 37 35 -0.705179 -0.486317 -0.515964
3.753392336309796 2.891161113947806 6.474214502916690 44 50 46 0.073890 -0.384964 0.919969
3.832081434667950 3.075703769892630 6.255848118410465 5 7 5 -0.445397 0.000535 -0.895333
2.004335043371563 -1.973663300305429 6.367458173380252 58 64 61 0.630665 -0.440889 0.638654
3.851427195013409 3.186324506968436 7.319567927465793 15 20 15 -0.301039 -0.093104 -0.949056
4.011867163122540 3.326924234599051 7.039869674787876 27 37 39 -0.998449 -0.044289 0.033740
3.783163664282208 3.035083204478202 6.278106161699649 5 7 5 -0.238884 -0.127780 -0.962604
3.949572203100567 3.085249811381278 8.258720347032900 129 95 61 -0.030890 -0.983841 0.176360
3.964201567114239 3.256200700968680 8.960735627756472 225 239 245 -0.035951 -0.585819 -0.809644
3.939689752996808 2.962824493616996 9.258817144976016 112 126 126 -0.387411 -0.920312 0.054213
3.778987524450665 2.432104736536918 12.618129798517582 110 96 79 0.462587 -0.308896 -0.831022
3.824575064123517 2.417203813761649 12.389914580927250 117 98 71 -0.383873 -0.743196 0.547998
2.963012335241681 0.066133677929816 6.546695062265750 30 34 36 -0.956992 0.251652 -0.144354
2.438561079443341 -1.276530951291146 6.432433315859195 48 52 48 -0.109298 -0.855955 0.505366
4.032991526068097 2.879584938258109 11.583646365747807 168 186 190 0.185326 -0.965917 -0.180716
4.002983686865216 2.647763639658866 12.245096274958012 118 94 70 0.086911 -0.450156 -0.888710
3.823062059820538 2.182662636012015 7.925997057304737 121 98 77 0.643006 -0.035717 0.765028
4.201382276953106 2.788576990336356 6.903961667166111 171 190 197 0.060117 -0.906695 0.417480
4.399066088140851 2.880661636561332 6.846999296293613 45 65 71 0.530259 -0.823029 -0.203592
4.367308256567364 2.883960872858939 10.876723357782719 51 57 56 -0.932618 -0.131289 -0.336135
4.436061975897198 2.789940506190238 7.164798030004856 4 11 11 -0.461401 -0.837143 -0.293771
4.544613954962140 2.834563881129203 7.949390509472248 102 81 64 0.254429 -0.728448 0.636106
4.591168997228985 2.899453312128959 9.149896928415652 149 121 86 -0.622184 -0.782871 0.000564
4.628053305090313 2.949121862620292 8.819917866335269 143 116 82 -0.053689 -0.990161 -0.129224
2.420409796179181 -2.105040162831369 7.770319366202709 120 110 91 -0.833143 0.542502 0.107541
2.273953077734356 -2.566422551899972 6.689267047987339 18 24 25 -0.790152 -0.587681 -0.174046
2.224310753286725 -2.712149232655587 7.219201007233020 204 198 197 0.380024 0.090213 -0.920567
4.736069796026593 2.979420334071097 8.103527435407992 107 83 62 0.265195 -0.921879 -0.282508
4.598147032202130 2.525330454081474 12.482640334711430 161 140 120 0.295736 -0.952382 0.074217
4.853898642004376 2.944898754328666 8.714445897684451 124 96 73 0.315125 -0.884626 -0.343705
4.913671133459454 3.039104133814750 9.410285421953555 131 104 74 0.760927 -0.646248 -0.057914
4.763618109167462 2.486098676890311 12.201924869165776 117 94 67 0.000012 -0.989954 -0.141391
4.895211336553936 2.879954010218558 9.734755345926640 125 99 73 0.663254 -0.623343 -0.414172
2.338976023138409 -2.966598600178781 5.785828658686039 13 20 21 -0.343883 -0.460727 -0.818215
4.901364920080548 2.708346754282889 10.927162715540288 120 97 70 0.558000 -0.824637 -0.092785
5.038118002355938 3.178374439448294 8.200084754572268 117 101 90 0.709974 -0.692274 0.129207
4.855389711798077 2.679585128992972 10.964516708002446 123 101 73 0.536786 -0.838434 0.094282
5.457527754248028 3.591318517893729 8.050532141075488 166 174 171 0.727038 -0.605220 0.324229
4.895815489233380 2.534774929255424 12.036829539881108 112 93 67 0.224040 -0.948039 -0.225892
2.641873476446515 -2.458631366520944 6.249999591455814 12 18 18 -0.333222 -0.888359 0.315883
5.498750803411847 3.640363126963553 8.042283811912890 159 167 165 0.286912 -0.957653 -0.024154
2.539557573736554 -2.805291980534616 6.974196383104679 117 125 130 0.484670 -0.873188 -0.051350
2.575788137853985 -2.755027622014108 6.526093670473453 27 35 34 0.811796 -0.414488 0.411323
5.487034437597638 3.471036344736991 11.431737491236088 113 121 114 0.668658 -0.714579 -0.205603
5.519138929785138 3.510058790415702 11.679900714502690 117 122 116 0.538760 -0.838466 -0.081930
5.597747919500714 3.497364193171439 8.826352306948062 89 99 84 -0.592384 -0.784094 0.185140
5.606198904455548 3.520306497782645 11.341393300638554 57 60 49 -0.559961 -0.808456 -0.181222
5.610641596258526 3.431781440943656 9.011216947183962 115 124 107 -0.806737 -0.585406 0.080472
5.842115995825177 3.819172769755302 12.368691512689946 74 73 64 -0.015284 -0.469393 -0.882857
5.632685301245099 3.463128000468192 9.303257056818362 94 104 87 -0.095429 -0.984288 -0.148561
2.734006521643048 -2.742528289586129 6.293765017137882 24 30 31 -0.647179 -0.036254 0.761476
2.939220545233136 -2.630399793416085 6.635232159242984 14 20 18 0.280366 -0.959114 -0.038670
5.709169504583722 3.120705515116629 8.000078925238009 176 190 187 -0.494881 -0.235307 0.836495
5.718084928930645 2.960119634837088 10.653172799692509 152 160 152 -0.976862 -0.173774 -0.124673
5.692577001989727 2.796567350596366 11.248743125543950 143 150 148 -0.997224 -0.058609 -0.045919
5.745617983282452 2.837701946467337 9.208485790834780 181 198 199 -0.948104 -0.208610 -0.239959
5.765928385198956 2.739075571268974 12.175591060266850 138 146 145 -0.993418 -0.114429 -0.005092
5.858723757208233 2.473227173060355 9.668139525995610 180 199 199 -0.805612 -0.319618 0.498832
5.765415785253888 2.350773483485160 10.736279555902836 125 136 135 -0.873035 -0.034262 -0.486452
5.714051363409405 2.142906099528251 8.625580617533084 185 204 204 -0.987568 -0.102585 -0.119101
3.598332521856671 -2.655016273289743 6.707128056631443 28 35 37 0.230708 -0.948371 0.217638
5.864820120275860 1.077240973681388 11.253964492426274 176 188 193 -0.961321 0.022535 0.274507
5.810247538030987 1.014246195525107 10.445337125406621 185 201 200 -0.569407 -0.807000 0.156609
4.295825121343976 -2.276550382405343 6.297950455294010 48 54 54 0.235884 -0.088400 0.967752
-5.601228120385761 -4.084992736607614 6.225308724985477 102 69 51 0.425870 -0.894540 0.135769
-9.885710599481220 4.222849994868216 10.374398299799319 198 170 147 0.083004 -0.996484 -0.011402
-9.611995580255146 4.176894813746390 10.895266124353762 192 163 140 -0.055487 -0.794538 -0.604673
-9.855933072625751 4.633535057276664 7.179341801748630 183 156 127 -0.011468 -0.713731 0.700326
-9.420173051416034 4.430036693781791 8.659937926874514 187 158 131 0.606490 -0.583247 -0.540364
-9.176996114312763 4.209734111994681 11.063179799661990 196 168 145 0.315214 -0.948947 0.011827
-9.340788724481220 4.656151920527396 6.998590239630100 185 152 119 -0.586772 -0.797832 -0.138426
-8.310736062585468 2.611841827601371 6.729819366083500 124 102 82 -0.496397 -0.750457 -0.436353
-8.883065106927509 4.087515026301322 12.033730098352788 199 172 154 -0.183058 -0.626933 -0.757262
-6.767296197473163 -0.245772540598932 6.732193717108127 62 62 58 0.047824 -0.427327 0.902831
-8.030982854425067 2.593438774317679 7.145964124546405 197 199 194 -0.515252 -0.810569 0.278375
-6.818501832543964 -0.163750544220033 6.802054831133243 172 148 130 -0.131497 -0.209238 0.968983
-7.784954907952899 2.387256771296439 7.380500027284977 176 176 170 -0.423782 -0.888674 -0.175122
-7.835343720971698 2.794559627741751 6.964892872915622 175 172 164 0.263861 0.028891 0.964128
-8.657627465783710 4.877194553584037 8.179398902998324 190 158 130 0.377425 -0.818892 -0.432396
-7.548759343682880 2.359899669856009 7.010478684053775 177 178 170 -0.743575 -0.281445 0.606535
-8.152302625238056 4.471531540125785 8.836991139994021 191 176 160 -0.855305 -0.516338 -0.042994
-7.983075501977558 4.286461025446830 8.751835295305606 221 223 214 -0.460652 -0.803815 -0.376405
-7.707722070275898 4.140216976374564 10.989269563303347 159 161 146 0.875876 -0.480911 -0.039568
-7.612868669091815 3.980938106745658 9.609371015177127 214 216 203 -0.381484 -0.862468 -0.332594
-7.478987577020282 4.065945774287162 11.719447681055424 212 213 205 0.893198 -0.216669 -0.394020
-7.512575986444110 4.072184234827933 10.718310424433108 222 224 216 0.300824 -0.776540 -0.553616
-4.817676427423114 -2.412972062855783 6.221979447946903 192 150 115 0.342859 -0.000239 0.939387
-5.217342259942646 -1.484025925427499 6.283507534609195 195 160 124 -0.229796 -0.448107 0.863941
-6.990260007440204 3.361199051112113 7.379671850548145 30 30 28 0.739126 -0.100075 -0.666091
-5.484273078500385 -0.538399070530954 6.540439912424442 52 56 56 -0.330623 -0.544088 0.771140
-6.059215905725116 1.097645074099479 6.790021964655277 91 89 75 0.312621 0.305933 0.899263
-6.728276612817401 3.184709459513602 7.576377738806438 31 31 28 -0.046292 -0.478055 -0.877109
-6.946143510400409 3.693417459696708 7.154742935047504 30 30 27 0.075304 -0.993761 -0.082269
-5.392894389688129 -0.565227717190805 6.549310037241336 51 56 56 -0.014482 -0.449958 0.892932
-6.113108041345233 2.343503385752616 7.715279483542797 175 174 165 -0.367762 -0.259327 0.893029
